# .PCD v0.7 - Point Cloud Data file format
VERSION 0.7
FIELDS x y z
SIZE 4 4 4
TYPE F F F
COUNT 1 1 1
WIDTH 1551
HEIGHT 1
VIEWPOINT 0 0 0 1 0 0 0
POINTS 1551
DATA ascii
0.07723929 0.089999966 0.017535089
0.082426414 0.089999974 0.017814707
0.087976821 0.090000004 0.017513901
0.0015855008 0.00083646021 0.022394789
0.0079478398 0 0.022718634
0.012168578 0 0.022487566
0.017122965 0 0.022350429
0.022746975 0 0.022652799
0.027175397 0 0.022591243
0.032702368 0 0.022180529
0.037797246 0 0.022853183
0.042514466 0 0.022547869
0.047328673 0 0.02222286
0.052877467 0 0.022483453
0.057560004 0 0.022646569
0.062223718 0 0.022639031
0.067841932 0 0.022221962
0.072362274 0 0.022373566
0.077602744 0 0.022867449
0.082349882 0 0.022392999
0.087552391 0 0.022610644
0.089999996 0.0024875624 0.022303447
0 0.0074368315 0.02228885
0.090000011 0.0074969232 0.022576086
0 0.012463964 0.022229321
0.089999996 0.012732419 0.022875141
0 0.017472215 0.022565076
0.090000004 0.017962033 0.022427261
0 0.0226252 0.022079773
0.089999981 0.02267291 0.022307355
0 0.027483607 0.022793123
0.089999974 0.027645942 0.022595719
0 0.032935269 0.022277886
0.090000018 0.032358281 0.022496315
0 0.037736263 0.023262821
0.089999974 0.037396643 0.022358563
0 0.042765804 0.022556288
0.089999996 0.042712778 0.021663535
0 0.047280904 0.022170097
0.089999996 0.047664344 0.023041451
0 0.052438878 0.022666896
0.090000004 0.052262112 0.022312749
0 0.057453748 0.022229986
0.089999981 0.057624292 0.022527851
0 0.062501468 0.022373648
0.089999981 0.062629387 0.022945981
0 0.067684762 0.02276543
0.089999981 0.067055061 0.022894975
0 0.072472855 0.022539668
0.089999966 0.072610192 0.022541711
0 0.077832647 0.022587003
0.089999989 0.077121101 0.022114284
0 0.082883582 0.022460619
0.089999996 0.082555704 0.022995869
0 0.087634146 0.022154095
0.089999981 0.08724194 0.022289971
0.0025088899 0.089999981 0.022677379
0.0074615567 0.090000011 0.022364065
0.012404823 0.089999989 0.022479938
0.017405773 0.089999974 0.022458207
0.022630649 0.089999966 0.022762613
0.027616039 0.089999981 0.022227995
0.032532547 0.089999974 0.022680616
0.037650667 0.089999981 0.022719137
0.043018527 0.090000026 0.022064365
0.047485791 0.089999981 0.022495637
0.052627582 0.089999974 0.022573169
0.057854056 0.089999966 0.022249063
0.06250307 0.089999966 0.022910468
0.067707315 0.089999974 0.022468213
0.0725751 0.089999981 0.022337768
0.078214958 0.089999989 0.022249432
0.082466714 0.089999989 0.022310305
0.087404393 0.089999989 0.02250962
0.0011720392 0.0013105386 0.027206656
0.0073752627 0 0.027706876
0.012479681 0 0.027699985
0.017340045 0 0.027748881
0.022751799 0 0.027396875
0.026905749 0 0.027701169
0.032326404 0 0.027507512
0.037636381 0 0.02790026
0.042122789 0 0.027734397
0.047375519 0 0.027199855
0.052261364 0 0.027751189
0.057374224 0 0.027490623
0.062602311 0 0.027303502
0.067276001 0 0.027476892
0.072568253 0 0.027664278
0.077682026 0 0.027177464
0.082248122 0 0.027270826
0.087400541 0 0.027577266
0.089999981 0.0025009671 0.027154079
0 0.0074704639 0.027780384
0.089999989 0.0072525404 0.027422082
0 0.012461835 0.027683897
0.089999974 0.012409195 0.027239818
0 0.017560607 0.027749021
0.089999981 0.017429668 0.027508095
0 0.022467036 0.027423445
0.089999989 0.022529878 0.027277194
0 0.027701082 0.027664905
0.089999981 0.027548522 0.027745456
0 0.032468319 0.027665565
0.089999974 0.032575417 0.026973804
0 0.037391692 0.027623251
0.089999981 0.037478067 0.027302761
0 0.042390242 0.027625306
0.089999981 0.042076349 0.027246283
0 0.047887992 0.027273908
0.089999981 0.046972599 0.027315876
0 0.052229717 0.027304873
0.089999996 0.052354239 0.027593661
0 0.057333879 0.027321056
0.089999981 0.057524979 0.027512608
0 0.062348187 0.027565612
0.089999981 0.062740676 0.027783077
0 0.067747079 0.027624341
0.089999974 0.067692779 0.027310198
0 0.07234519 0.027281724
0.089999996 0.072325774 0.02727728
0 0.077314161 0.027230451
0.089999966 0.077248149 0.027371317
0 0.083023563 0.027446846
0.089999981 0.082438685 0.027330218
0 0.087793849 0.027635779
0.089999966 0.087545797 0.027447117
0.0022640482 0.089999974 0.027117541
0.007552953 0.089999974 0.027666325
0.012286115 0.089999981 0.027619623
0.017568799 0.089999981 0.027227502
0.022824446 0.089999996 0.027097745
0.027100872 0.089999974 0.027371254
0.032134872 0.089999981 0.027212147
0.038007423 0.089999974 0.02729431
0.042706497 0.089999981 0.027601304
0.047603592 0.089999974 0.027692715
0.052424591 0.089999981 0.027534727
0.057389606 0.089999989 0.027473899
0.062437259 0.089999966 0.027671838
0.067666069 0.089999981 0.02810516
0.072432913 0.089999981 0.027276171
0.077847026 0.089999974 0.027183127
0.082068235 0.089999989 0.027168037
0.087679394 0.089999989 0.02701452
0.0011387387 0.0012965278 0.03262997
0.0073363641 0 0.032345116
0.012533744 0 0.032612547
0.017418232 0 0.032530438
0.022267396 0 0.032081395
0.027049847 0 0.032606702
0.032321744 0 0.032654095
0.037364807 0 0.032451745
0.041951887 0 0.032450821
0.047797259 0 0.032521799
0.052511316 0 0.032397754
0.057335705 0 0.032797981
0.062167864 0 0.03245635
0.067828871 0 0.032638855
0.072379157 0 0.032859143
0.077225715 0 0.032701381
0.082409874 0 0.032069571
0.087602861 0 0.03231924
0.089999974 0.0021886327 0.032480262
0 0.007506493 0.032189868
0.089999974 0.0074168257 0.032310169
0 0.012775561 0.032173086
0.089999996 0.01229822 0.032474879
0 0.017351618 0.032759316
0.089999981 0.017149219 0.032169603
0 0.02267213 0.032175254
0.089999974 0.022320731 0.032641947
0 0.027545065 0.032541428
0.089999981 0.027611017 0.032593202
0 0.032245424 0.032089207
0.089999974 0.032536682 0.032454394
0 0.038005706 0.032395147
0.089999989 0.03795357 0.032670449
0 0.042904213 0.032943413
0.090000004 0.042837672 0.032779638
0 0.04750827 0.03221862
0.089999981 0.047647309 0.032460526
0 0.052696534 0.033011504
0.089999981 0.052792832 0.032766905
0 0.057487123 0.032567967
0.089999974 0.057181574 0.032276254
0 0.062561594 0.032407377
0.089999966 0.062607162 0.032184675
0 0.067763396 0.033041935
0.089999981 0.06753695 0.032085493
0 0.072436057 0.032523043
0.089999981 0.072384819 0.032801729
0 0.077826455 0.032606255
0.089999974 0.077224091 0.032938924
0 0.08242321 0.032490075
0.089999974 0.08270435 0.032481458
0 0.087623395 0.032640222
0.089999981 0.087526992 0.032252472
0.0025140375 0.089999974 0.032764357
0.0075572291 0.089999974 0.032756943
0.012087846 0.090000004 0.032380097
0.017016232 0.089999989 0.032415517
0.02243115 0.089999989 0.032169983
0.027094835 0.089999996 0.032716718
0.031982556 0.089999981 0.032720499
0.037597932 0.089999989 0.032275159
0.042270523 0.089999996 0.032828737
0.047628764 0.089999966 0.032353699
0.052177731 0.089999974 0.032319915
0.057707686 0.089999974 0.032522958
0.062317736 0.089999981 0.03253857
0.067704841 0.089999974 0.032334045
0.072359286 0.089999981 0.03237192
0.077283308 0.089999981 0.032364402
0.082860827 0.089999981 0.032398619
0.087568313 0.089999966 0.032592282
0.0012271114 0.001279325 0.037496239
0.0078652604 0 0.037825041
0.012603232 0 0.037035305
0.017517973 0 0.037462682
0.022636484 0 0.037446089
0.027461307 0 0.037420876
0.031744964 0 0.037848677
0.03730648 0 0.037120432
0.042589478 0 0.037482169
0.047729738 0 0.037466601
0.052495345 0 0.037358042
0.057218432 0 0.037761062
0.062337331 0 0.037259135
0.067411177 0 0.037466232
0.072709285 0 0.037614096
0.077126637 0 0.037392698
0.08241336 0 0.037689041
0.087310217 0 0.037341416
0.090000011 0.0025721649 0.037805196
0 0.0074257748 0.037446525
0.089999981 0.007533418 0.037561823
0 0.013015151 0.03733214
0.089999974 0.012365629 0.037746556
0 0.017728401 0.037520524
0.089999974 0.017566379 0.037816808
0 0.022667883 0.03775226
0.089999981 0.022321438 0.037310492
0 0.02778133 0.037459638
0.089999974 0.02789719 0.037250172
0 0.032469399 0.03777891
0.089999974 0.032652378 0.037390403
0 0.037704125 0.037761152
0.090000004 0.037212797 0.037522987
0 0.042772096 0.037770763
0.089999974 0.042438459 0.03738286
0 0.04791382 0.037503533
0.089999974 0.047528807 0.037427526
0 0.05215016 0.037224706
0.089999989 0.052909367 0.037536304
0 0.057350855 0.037437361
0.089999974 0.057611387 0.037855465
0 0.062710598 0.037572782
0.089999974 0.062552691 0.037310641
0 0.067434408 0.037140716
0.089999989 0.067832336 0.037484266
0 0.072544537 0.037588004
0.089999974 0.072489932 0.037811439
0 0.077670559 0.037734356
0.089999974 0.077334434 0.037741926
0 0.083147883 0.037404597
0.089999996 0.082635812 0.03750943
0 0.087429121 0.03712276
0.089999974 0.087479562 0.037764397
0.0024530503 0.089999974 0.037424799
0.0077258991 0.089999989 0.037633248
0.012680858 0.089999974 0.037424229
0.01708651 0.089999966 0.037637722
0.022480689 0.089999996 0.03805346
0.027112111 0.089999974 0.037248332
0.03234826 0.089999981 0.037615974
0.037694227 0.089999996 0.037639651
0.042437926 0.089999966 0.037475001
0.047243316 0.089999989 0.037789863
0.052749928 0.089999996 0.037037458
0.057267252 0.089999989 0.03749416
0.062517807 0.089999981 0.037771441
0.067479156 0.089999974 0.037133049
0.072739944 0.089999974 0.037242863
0.077448606 0.089999996 0.037333123
0.082822084 0.090000004 0.037599426
0.087590158 0.089999974 0.037166707
0.001175178 0.001085571 0.042385761
0.0072238008 0 0.042610824
0.012562471 0 0.04253443
0.017748602 0 0.042659871
0.02249568 0 0.042611133
0.027224161 0 0.042838529
0.032570001 0 0.042704053
0.037263401 0 0.042569689
0.042090368 0 0.042552877
0.04753371 0 0.042395018
0.052161954 0 0.04252819
0.057380147 0 0.042453106
0.062399358 0 0.042987816
0.067807153 0 0.04254869
0.072701715 0 0.042554528
0.077169269 0 0.042648487
0.082521699 0 0.042318348
0.087485418 0 0.04195828
0.089999996 0.0027421149 0.042036422
0 0.0075762756 0.042261392
0.089999996 0.0080031771 0.042421568
0 0.012621777 0.04288049
0.089999989 0.012630383 0.042769819
0 0.017142115 0.042452332
0.089999966 0.017852509 0.042518482
0 0.022738615 0.04233104
0.090000004 0.022224985 0.041957576
0 0.027538598 0.042245675
0.089999974 0.027903924 0.042675011
0 0.032826073 0.041948881
0.089999996 0.032627344 0.042725962
0 0.037373882 0.042547736
0.089999974 0.037430737 0.042420629
0 0.042338267 0.04220403
0.089999974 0.042621259 0.042646598
0 0.047412928 0.04231488
0.089999974 0.047604654 0.042283934
0 0.052291024 0.042682
0.089999981 0.052656472 0.04217241
0 0.056758452 0.042299479
0.089999974 0.05738483 0.04276672
0 0.062285814 0.042667046
0.089999989 0.06311062 0.042627722
0 0.067556128 0.043068428
0.089999996 0.06771829 0.042955607
0 0.072463401 0.042549342
0.089999996 0.072414711 0.042947732
0 0.077473611 0.042480148
0.089999974 0.078052729 0.042318247
0 0.082232952 0.042759392
0.089999996 0.082387127 0.042495735
0 0.08729127 0.0425773
0.089999989 0.087282367 0.041908186
0.002983646 0.090000004 0.042408664
0.0075349235 0.089999974 0.042667393
0.012484746 0.089999974 0.042982191
0.017630035 0.089999996 0.042298984
0.022151982 0.089999974 0.042736053
0.027317837 0.089999981 0.042544715
0.032653175 0.089999989 0.042669933
0.037762661 0.089999981 0.042730596
0.042584497 0.089999974 0.042558465
0.047731601 0.089999974 0.042703595
0.052523717 0.089999981 0.042563569
0.057326335 0.089999981 0.042488921
0.062195238 0.089999974 0.042668056
0.067479365 0.089999966 0.0427122
0.073013574 0.090000004 0.042495925
0.07738746 0.089999981 0.042790428
0.082354836 0.089999996 0.042542376
0.087433398 0.089999981 0.042445891
0.0014855171 0.00092534517 0.047476184
0.0075242138 0 0.047662966
0.012413746 0 0.047317516
0.017365549 0 0.04799125
0.022752 0 0.047567915
0.027124565 0 0.04751968
0.032683812 0 0.047154687
0.037355825 0 0.047448955
0.041991424 0 0.047398135
0.047650993 0 0.047577195
0.052613504 0 0.047523569
0.05723691 0 0.047749903
0.062033262 0 0.047867533
0.067856804 0 0.047571208
0.072718948 0 0.047523469
0.077868633 0 0.047635604
0.082726829 0 0.047722295
0.087198675 0 0.047204304
0.089999974 0.0026565669 0.047445342
0 0.0071663931 0.047481418
0.089999966 0.0072349329 0.047734633
0 0.012560152 0.047708407
0.089999974 0.012475659 0.04749959
0 0.017379759 0.047553793
0.089999974 0.01784369 0.047612097
0 0.0228529 0.047287721
0.090000004 0.022850437 0.047532838
0 0.027338883 0.047546741
0.089999966 0.027633073 0.046884131
0 0.032954521 0.047725547
0.089999974 0.032550696 0.047225021
0 0.037340768 0.047725759
0.089999981 0.037361749 0.047431245
0 0.042599496 0.047727779
0.089999996 0.042183723 0.047202643
0 0.047771588 0.047751222
0.089999974 0.047326054 0.047681119
0 0.052298065 0.047602538
0.090000004 0.052644331 0.047734618
0 0.057392739 0.047638919
0.089999974 0.057412528 0.04770907
0 0.062433962 0.047110964
0.089999996 0.062660038 0.047864102
0 0.067179546 0.047661372
0.089999966 0.067899242 0.047181923
0 0.072035156 0.047056649
0.089999981 0.072206773 0.047910072
0 0.077578038 0.047833413
0.089999974 0.077505335 0.047474612
0 0.082775377 0.047317032
0.089999974 0.082459301 0.047465559
0 0.087062009 0.047545046
0.089999974 0.087357692 0.047460683
0.0023707226 0.089999989 0.047553562
0.0076351701 0.089999974 0.047508314
0.01236127 0.089999996 0.047501389
0.017405709 0.089999996 0.047572814
0.022279048 0.089999974 0.047859173
0.027740393 0.089999974 0.047154751
0.032319795 0.089999989 0.047426786
0.037903868 0.089999974 0.047321167
0.042989306 0.089999974 0.047421906
0.047780901 0.089999981 0.047375381
0.052213646 0.089999974 0.047544975
0.05810326 0.089999974 0.047557272
0.062577881 0.090000011 0.047186535
0.067429744 0.089999981 0.047774132
0.072256446 0.089999981 0.047885638
0.077039652 0.089999974 0.047346883
0.082506709 0.089999996 0.04715896
0.087772004 0.089999981 0.047415435
0.0013482486 0.0011094533 0.052855548
0.0073016807 0 0.052746408
0.012882538 0 0.052641369
0.018123453 0 0.052859321
0.022310693 0 0.052488662
0.027619351 0 0.052455861
0.032613717 0 0.052194405
0.037138071 0 0.052716527
0.04262181 0 0.052733414
0.047551956 0 0.05300352
0.052691203 0 0.052564681
0.057311822 0 0.052293599
0.062758915 0 0.052402731
0.067890935 0 0.052385736
0.072451212 0 0.052512512
0.077625424 0 0.052570179
0.08295621 0 0.052560758
0.087651968 0 0.052414317
0.089999996 0.0024258771 0.05263425
0 0.0071974979 0.052512486
0.089999974 0.007407946 0.052518293
0 0.012579058 0.052670468
0.089999974 0.012676911 0.052247576
0 0.017574726 0.052265968
0.089999996 0.017785342 0.052777316
0 0.022331888 0.052262075
0.089999974 0.022804925 0.052845459
0 0.027914291 0.052100327
0.089999974 0.027639821 0.052477408
0 0.032485284 0.052915424
0.089999989 0.032803278 0.052573744
0 0.037567202 0.052675691
0.089999974 0.037408687 0.053096987
0 0.04236326 0.052325804
0.089999989 0.04289173 0.05217554
0 0.047308724 0.052268375
0.089999981 0.047221411 0.052108243
0 0.052198 0.052410018
0.089999989 0.05268329 0.05260979
0 0.057191905 0.052567024
0.089999966 0.057480458 0.053090587
0 0.06267982 0.052570228
0.089999974 0.062399644 0.05273407
0 0.067044005 0.052397396
0.089999981 0.068047673 0.052906092
0 0.072217904 0.052467324
0.089999981 0.072526053 0.052505035
0 0.077123553 0.052823935
0.089999981 0.077690564 0.052602939
0 0.082498893 0.052674167
0.089999989 0.082354508 0.052623857
0 0.08782094 0.052283436
0.089999996 0.08769089 0.052756652
0.0029505505 0.089999996 0.052338179
0.0075746658 0.089999981 0.052142799
0.0124128 0.090000004 0.053231724
0.017916309 0.089999974 0.052662067
0.022211656 0.089999974 0.052517053
0.027573142 0.089999974 0.052494131
0.032243043 0.090000011 0.052719723
0.037919421 0.089999981 0.052339952
0.042699423 0.089999981 0.052492708
0.047609609 0.089999989 0.052607477
0.052170981 0.089999981 0.052322932
0.057168499 0.089999981 0.052659407
0.062556155 0.090000018 0.052623477
0.067012228 0.089999981 0.052281111
0.072199434 0.089999974 0.052373417
0.077270471 0.089999996 0.052917458
0.082441561 0.089999996 0.052791435
0.087269261 0.090000004 0.052820567
0.00124399 0.0013981865 0.057521556
0.0075897863 0 0.057151537
0.012355537 0 0.057632998
0.017649958 0 0.05730734
0.022411425 0 0.057480786
0.027423227 0 0.05678454
0.032671489 0 0.057600994
0.037456915 0 0.05756529
0.042795897 0 0.057615355
0.047581006 0 0.057368882
0.052433658 0 0.057775576
0.057627216 0 0.05755591
0.062481187 0 0.057575222
0.068228893 0 0.057599306
0.072386369 0 0.057591073
0.077646747 0 0.057533503
0.082158513 0 0.057383381
0.087563589 0 0.0578123
0.089999974 0.002313368 0.057457998
0 0.0075080059 0.057434302
0.089999966 0.0074499352 0.057575092
0 0.0123022 0.057577182
0.089999989 0.012492494 0.057306141
0 0.017452598 0.057236832
0.089999981 0.017639874 0.058076497
0 0.022946125 0.057654716
0.089999974 0.023300325 0.057283189
0 0.02707069 0.058021378
0.089999974 0.02720974 0.057687458
0 0.032250751 0.057795413
0.089999981 0.032189146 0.057219774
0 0.036978826 0.057315238
0.089999974 0.037339278 0.058022212
0 0.042445574 0.057184044
0.089999974 0.042606752 0.057495356
0 0.047047894 0.057488557
0.089999996 0.047204733 0.058094781
0 0.052418754 0.057303891
0.090000011 0.052278977 0.057624105
0 0.057291474 0.057371642
0.089999996 0.057492949 0.057838243
0 0.062676936 0.057255577
0.089999974 0.062888972 0.05700966
0 0.067838028 0.057566669
0.089999974 0.067275941 0.057687357
0 0.07251972 0.057401992
0.090000011 0.072810955 0.057511266
0 0.077262282 0.057616923
0.090000004 0.07718914 0.057705566
0 0.082443289 0.057600357
0.089999989 0.082263544 0.056922775
0 0.087385505 0.057333943
0.089999989 0.087347776 0.057488047
0.0023913158 0.089999974 0.057350837
0.0072253845 0.089999974 0.057205416
0.012620292 0.089999974 0.057271104
0.017729977 0.089999996 0.058372952
0.022233987 0.089999981 0.057230212
0.027298277 0.089999966 0.057374611
0.032258283 0.089999989 0.057478413
0.037549946 0.089999989 0.057645883
0.042141136 0.089999996 0.057854924
0.047632761 0.089999974 0.05752768
0.052282766 0.089999981 0.057231948
0.057429783 0.089999974 0.057685576
0.063106678 0.089999996 0.057437956
0.067754909 0.090000011 0.057720914
0.072623961 0.089999974 0.057192262
0.077320419 0.089999974 0.057466447
0.082379013 0.089999981 0.057422832
0.08772482 0.089999989 0.057679839
0.0012612726 0.0010754179 0.062415466
0.007295846 0 0.062678248
0.01261433 0 0.062312681
0.017520726 0 0.062728703
0.022314528 0 0.062561043
0.027719038 0 0.062165696
0.032489553 0 0.062031109
0.037814725 0 0.062751047
0.042528674 0 0.062171109
0.047313798 0 0.062690094
0.052238058 0 0.062401906
0.057479236 0 0.062687956
0.062184341 0 0.06210212
0.06784787 0 0.06186321
0.07239411 0 0.062374841
0.077353828 0 0.062709033
0.082362033 0 0.062367074
0.087145999 0 0.062567726
0.089999974 0.0025838313 0.062005043
0 0.0076069157 0.062874399
0.089999966 0.0076223938 0.062652595
0 0.01237414 0.062789962
0.089999974 0.012249766 0.062107138
0 0.017584039 0.062802143
0.089999966 0.017375702 0.062641032
0 0.022165803 0.061870847
0.089999981 0.022934923 0.062407486
0 0.027449312 0.062450308
0.089999996 0.027682649 0.062289812
0 0.032798924 0.062357433
0.089999981 0.032072991 0.062605739
0 0.037297536 0.062578991
0.089999974 0.037727278 0.062756896
0 0.042399231 0.061771981
0.090000011 0.042736329 0.062419772
0 0.04747453 0.062590353
0.089999974 0.047927178 0.062442414
0 0.052639954 0.062389519
0.089999974 0.052374437 0.062599033
0 0.057974406 0.062699698
0.089999996 0.057785153 0.062419243
0 0.062610231 0.062181607
0.089999981 0.062377173 0.062990434
0 0.068360589 0.06232284
0.089999989 0.067417212 0.062064122
0 0.072736956 0.062250037
0.089999981 0.072365113 0.062350113
0 0.077832989 0.062554799
0.089999981 0.077547051 0.062541172
0 0.082503594 0.062633596
0.089999989 0.082371719 0.062586494
0 0.087294944 0.062455926
0.089999974 0.087744161 0.062345825
0.0025206052 0.089999974 0.062417753
0.0076920968 0.089999981 0.062428135
0.012799614 0.089999981 0.062589124
0.017435398 0.089999974 0.061945282
0.022619972 0.090000004 0.062511139
0.027652543 0.089999989 0.062346119
0.032374468 0.089999974 0.062785186
0.037903279 0.089999996 0.062969185
0.042342931 0.089999974 0.062388036
0.04749864 0.089999989 0.062634028
0.052449629 0.090000004 0.062569335
0.057471007 0.089999989 0.062496278
0.062643327 0.089999981 0.062683024
0.067583919 0.089999974 0.062469549
0.072624855 0.089999974 0.062744349
0.07730528 0.089999974 0.062616169
0.082505226 0.090000004 0.062643416
0.087411046 0.089999974 0.062105145
0.0014703636 0.0010626133 0.067526065
0.0077036074 0 0.067431502
0.012235518 0 0.067660347
0.017516391 0 0.067104377
0.022171959 0 0.067207791
0.027874013 0 0.067644738
0.031982441 0 0.067162007
0.037629407 0 0.06720531
0.042586051 0 0.067353606
0.047594331 0 0.067375824
0.052365284 0 0.067571767
0.057683822 0 0.067275956
0.062037338 0 0.067874968
0.067656554 0 0.067818187
0.072269887 0 0.067604885
0.077510625 0 0.067629121
0.082842574 0 0.06772428
0.087623343 0 0.067454204
0.089999996 0.0024156983 0.067801148
0 0.0074424194 0.067750692
0.089999996 0.0070320824 0.067295477
0 0.012853517 0.067782164
0.089999989 0.012513467 0.067376949
0 0.017748173 0.067480624
0.089999974 0.017258225 0.067010552
0 0.022448586 0.06770514
0.089999966 0.022324929 0.067687899
0 0.027695788 0.067473218
0.089999981 0.027247485 0.067681402
0 0.032165043 0.067981541
0.089999974 0.032602746 0.067600034
0 0.037601724 0.067334212
0.090000004 0.037558444 0.067585319
0 0.042544693 0.067493506
0.089999974 0.042608015 0.067382641
0 0.047611594 0.06765721
0.089999966 0.047252584 0.067827061
0 0.052777186 0.067370921
0.089999974 0.052190129 0.067545027
0 0.057552036 0.067368209
0.089999974 0.057491098 0.067450784
0 0.062225651 0.067895599
0.089999966 0.06278187 0.067641012
0 0.067559652 0.067766003
0.089999974 0.067426987 0.067286149
0 0.072333097 0.067869104
0.089999989 0.072869271 0.067646474
0 0.077361487 0.067476973
0.089999981 0.07749936 0.067301817
0 0.082806803 0.067092553
0.089999996 0.082722202 0.067336679
0 0.087801307 0.067912139
0.089999974 0.087319009 0.067226268
0.0023344606 0.089999981 0.067051917
0.0078723272 0.089999966 0.067465112
0.012606837 0.089999966 0.067266569
0.017513933 0.089999974 0.067666978
0.022484986 0.089999966 0.067522027
0.027128618 0.089999989 0.067407958
0.032402497 0.089999981 0.067196697
0.037542231 0.089999989 0.06745299
0.04283645 0.089999996 0.067711532
0.04727288 0.089999996 0.067379907
0.052318495 0.089999974 0.067513406
0.05710965 0.089999974 0.067481071
0.062456939 0.089999974 0.067741469
0.067798547 0.089999981 0.067780852
0.072544985 0.089999974 0.067858331
0.077206604 0.090000004 0.06759651
0.082419284 0.089999996 0.067876548
0.087545559 0.089999974 0.067557223
0.00095984881 0.0014616115 0.072395705
0.0076693441 0 0.072358936
0.012622188 0 0.07266295
0.017909095 0 0.072607465
0.02215831 0 0.072981887
0.027776869 0 0.072429076
0.032795638 0 0.072190136
0.037786946 0 0.072639361
0.042339787 0 0.072720446
0.04758659 0 0.072573774
0.052685585 0 0.072180532
0.057587307 0 0.072659157
0.062965609 0 0.072596014
0.067627788 0 0.072336867
0.072548069 0 0.072469421
0.077278212 0 0.072599113
0.08238975 0 0.072522648
0.087784983 0 0.072807044
0.089999996 0.0026369256 0.072641216
0 0.0073955311 0.072354287
0.089999974 0.0075354972 0.072656624
0 0.012657641 0.072809622
0.089999989 0.01252068 0.072497867
0 0.017696584 0.07271222
0.089999989 0.017818466 0.072172396
0 0.022410223 0.072621226
0.089999981 0.022384388 0.072812982
0 0.027536429 0.072883606
0.089999996 0.027202925 0.072367892
0 0.032575376 0.072104737
0.089999981 0.032378498 0.072922997
0 0.037539769 0.072622739
0.089999981 0.037706152 0.072537869
0 0.042491306 0.072296947
0.089999989 0.042298447 0.072572812
0 0.04744184 0.0726704
0.089999981 0.047404565 0.073047012
0 0.052345518 0.072648995
0.089999996 0.052342884 0.072233096
0 0.057144824 0.072396629
0.089999974 0.057197094 0.072579473
0 0.062223863 0.072013922
0.089999989 0.062693626 0.072743386
0 0.067607209 0.072626509
0.089999989 0.067336604 0.072415441
0 0.072393775 0.072531335
0.089999981 0.072738022 0.072801031
0 0.077204995 0.072384186
0.089999981 0.07768216 0.072643436
0 0.082789056 0.072398849
0.089999981 0.082454979 0.072560184
0 0.087692641 0.072523303
0.089999989 0.087525822 0.072236873
0.0027236231 0.089999996 0.072568581
0.0071729664 0.089999989 0.072465278
0.012185986 0.089999974 0.072481513
0.017329516 0.089999996 0.072727628
0.022390479 0.089999989 0.072477601
0.027671751 0.089999974 0.072558656
0.032665595 0.089999966 0.072677374
0.037262037 0.089999974 0.072299987
0.042309646 0.089999981 0.0728921
0.047805149 0.089999996 0.072221957
0.052791037 0.089999989 0.072116673
0.05790754 0.089999989 0.072420791
0.062283367 0.090000011 0.072622709
0.067290619 0.089999981 0.072859414
0.072702795 0.089999966 0.072867386
0.078440852 0.090000011 0.072580352
0.082631327 0.090000011 0.072639629
0.087848783 0.089999996 0.072905377
0.0011629565 0.0014242154 0.077620834
0.0075365915 0 0.077699073
0.01230174 0 0.077000879
0.017268607 0 0.077161647
0.02244178 0 0.077451579
0.027465213 0 0.077507995
0.032219473 0 0.077492669
0.037889425 0 0.077358119
0.042719431 0 0.077249892
0.048060015 0 0.077416956
0.052942075 0 0.077702738
0.05747189 0 0.077420264
0.062283508 0 0.077822812
0.067097567 0 0.077570125
0.072649337 0 0.077417925
0.077149995 0 0.077328593
0.082705982 0 0.077855706
0.087669812 0 0.077363864
0.089999996 0.0026899355 0.077560097
0 0.0076231528 0.077231281
0.089999974 0.0075740567 0.077510953
0 0.012160062 0.077387944
0.089999981 0.012669541 0.077759512
0 0.017671166 0.077535301
0.089999981 0.01745013 0.077647299
0 0.02254351 0.077531032
0.089999966 0.023046864 0.07739222
0 0.0273098 0.077393301
0.089999981 0.027592981 0.077867687
0 0.032402985 0.077572577
0.089999981 0.032333449 0.077727638
0 0.037820775 0.077454284
0.089999974 0.03754364 0.077493086
0 0.04246743 0.077729039
0.089999974 0.042740315 0.077489875
0 0.047778729 0.077676721
0.089999974 0.047155712 0.077222601
0 0.052359555 0.077289656
0.089999996 0.05258026 0.077321708
0 0.057092447 0.077708878
0.089999989 0.057355996 0.077281475
0 0.062687926 0.077428654
0.089999981 0.062465206 0.077402115
0 0.067525402 0.078060701
0.089999981 0.067092627 0.076928653
0 0.073029332 0.077226639
0.089999974 0.072201267 0.077604175
0 0.077322744 0.077703916
0.089999974 0.076951362 0.077288114
0 0.082365654 0.077183001
0.089999974 0.082111046 0.078038864
0 0.087028384 0.077590682
0.089999989 0.087171525 0.077547364
0.0022228095 0.089999981 0.077493288
0.007234477 0.089999981 0.077468202
0.012757677 0.090000011 0.077429265
0.017490592 0.089999974 0.07742051
0.02223129 0.089999989 0.077559188
0.027766882 0.089999981 0.077243745
0.032926567 0.089999981 0.077226959
0.037542779 0.089999974 0.077451266
0.042101592 0.090000011 0.077133551
0.047617905 0.089999974 0.077482447
0.0526562 0.089999981 0.077399522
0.057288248 0.089999974 0.077622153
0.062549248 0.089999981 0.07748583
0.067236416 0.089999981 0.077496648
0.072422184 0.089999996 0.077699497
0.077601485 0.089999989 0.077777825
0.082398355 0.089999989 0.077507496
0.087629914 0.089999996 0.077637129
0.0014045279 0.0012587272 0.082357064
0.0073583932 0 0.082856767
0.012144216 0 0.082902044
0.017497327 0 0.082413778
0.02255635 0 0.082760051
0.027882379 0 0.082556315
0.032692332 0 0.082818642
0.037678462 0 0.082660854
0.042505749 0 0.082244642
0.04817472 0 0.082691215
0.052773688 0 0.082634509
0.057688832 0 0.082278632
0.062586904 0 0.082766615
0.06734053 0 0.082750559
0.072510682 0 0.082448483
0.077244706 0 0.082239635
0.082535118 0 0.082242265
0.087368615 0 0.082586914
0.089999981 0.0024833861 0.082630888
0 0.007039079 0.082657553
0.089999974 0.0077191279 0.082597695
0 0.012464895 0.082243972
0.089999996 0.01281957 0.082193159
0 0.017438676 0.082602978
0.089999974 0.017573684 0.082689188
0 0.021996601 0.082577772
0.089999989 0.02238616 0.082308598
0 0.02747249 0.082192488
0.089999996 0.027681217 0.08262293
0 0.032454036 0.082571037
0.089999966 0.032631937 0.082364984
0 0.037577614 0.082292788
0.090000026 0.037769351 0.082481474
0 0.042829908 0.082620561
0.089999981 0.042369287 0.082516
0 0.047526713 0.082229517
0.089999996 0.047397498 0.082664773
0 0.052635349 0.082390994
0.089999996 0.052149381 0.082472652
0 0.057370864 0.082812957
0.089999989 0.05733832 0.082622275
0 0.062815942 0.082424551
0.089999989 0.062133379 0.082329571
0 0.068002194 0.082428053
0.089999974 0.067623362 0.082083695
0 0.072408549 0.081836909
0.089999981 0.072380811 0.082352974
0 0.077433184 0.082490437
0.089999981 0.077592038 0.08265534
0 0.08256872 0.082509324
0.089999981 0.082513973 0.082602911
0 0.087282822 0.082482353
0.089999981 0.087389737 0.082567796
0.0023529013 0.089999981 0.08228296
0.0069732829 0.089999989 0.082817987
0.0125569 0.089999981 0.082412824
0.017733091 0.089999981 0.082704939
0.022839425 0.089999966 0.082741059
0.027241817 0.089999989 0.082776472
0.032460049 0.089999966 0.08254113
0.03730081 0.089999981 0.082992859
0.042050466 0.089999981 0.082643099
0.047181077 0.089999981 0.08235874
0.052415747 0.089999981 0.082730956
0.057235721 0.089999989 0.082547039
0.062866203 0.089999974 0.082651787
0.067772932 0.089999981 0.082608834
0.072949782 0.089999996 0.082886375
0.077925846 0.089999974 0.082512975
0.082932577 0.089999989 0.082158178
0.086967587 0.089999989 0.08247719
0.0013781707 0.0015863932 0.087549835
0.0077284584 0 0.087613486
0.012687189 0 0.087985642
0.017536381 0 0.087617978
0.022525696 0 0.087533973
0.027735854 0 0.08761926
0.032243975 0 0.087600857
0.037292752 0 0.08747188
0.042458441 0 0.08744733
0.0474278 0 0.08742436
0.052749455 0 0.087753095
0.057573412 0 0.087493137
0.062706769 0 0.087623358
0.067118049 0 0.08743383
0.072361879 0 0.087368123
0.077319369 0 0.087155506
0.082283616 0 0.087399572
0.087580547 0 0.087120578
0.089999974 0.0024503786 0.087263174
0 0.0073242742 0.087470151
0.089999974 0.0075369491 0.08768855
0 0.012595083 0.087779902
0.089999974 0.012378467 0.087533407
0 0.017677257 0.087645531
0.089999981 0.01778549 0.08733882
0 0.022351312 0.087321587
0.090000011 0.022967501 0.087590165
0 0.027866444 0.08748693
0.089999974 0.027707091 0.087000087
0 0.032317128 0.087330081
0.089999989 0.03254059 0.088152364
0 0.038015705 0.087122761
0.089999989 0.037180852 0.087016068
0 0.042518344 0.087717719
0.089999974 0.042288404 0.08722347
0 0.047355004 0.087521657
0.089999966 0.047528386 0.087408274
0 0.052384853 0.087594032
0.089999989 0.052688785 0.087348148
0 0.057509359 0.087645642
0.089999974 0.057781905 0.087645851
0 0.06264969 0.087523527
0.089999989 0.062388513 0.087561049
0 0.067437172 0.087474689
0.089999989 0.067479081 0.08777108
0 0.072429344 0.087605022
0.089999974 0.072648853 0.087941974
0 0.077430241 0.087626852
0.089999974 0.07752794 0.087338783
0 0.082524292 0.0874274
0.089999989 0.082526848 0.08809755
0 0.087047257 0.087626129
0.089999981 0.087317318 0.08717832
0.0024601901 0.089999981 0.087276742
0.007364348 0.089999974 0.087038465
0.012296951 0.089999989 0.087661237
0.017474221 0.089999974 0.087194234
0.022375632 0.089999974 0.087476693
0.0272473 0.089999996 0.088101074
0.032473829 0.089999974 0.087356478
0.0376026 0.089999989 0.087236159
0.042763978 0.089999974 0.087736897
0.047785413 0.089999981 0.087534755
0.052610513 0.089999996 0.087592728
0.057179749 0.089999981 0.087368764
0.062694728 0.089999981 0.087498471
0.067535631 0.089999974 0.087475955
0.072364531 0.089999974 0.087497078
0.07786981 0.089999981 0.08757358
0.082170516 0.089999981 0.087675065
0.087656178 0.089999974 0.087625422
0.0010372166 0.0017881993 0.092503995
0.0071608745 0 0.092213087
0.012130557 0 0.093016379
0.017523166 0 0.092342474
0.022174139 0 0.092131011
0.027427729 0 0.092471816
0.032571137 0 0.09250205
0.037473593 0 0.092478484
0.042386729 0 0.092721432
0.047541015 0 0.092501484
0.052999333 0 0.092833415
0.057493918 0 0.092665352
0.061951514 0 0.092645168
0.067783959 0 0.092868656
0.072509281 0 0.092440099
0.07727237 0 0.092687987
0.082474813 0 0.092519253
0.087620422 0 0.09244395
0.090000004 0.0028900525 0.092295021
0 0.0075901914 0.09251368
0.089999996 0.0071222358 0.092503838
0 0.012827966 0.092223682
0.089999981 0.012740461 0.092494518
0 0.017639341 0.092174292
0.089999989 0.017256793 0.092675716
0 0.02194204 0.09251409
0.089999989 0.022559009 0.092954509
0 0.027921295 0.092435531
0.089999974 0.027678315 0.092569642
0 0.032271516 0.092448466
0.089999989 0.032719404 0.092938714
0 0.037350331 0.092423007
0.089999981 0.037359968 0.092588954
0 0.042454991 0.0928789
0.089999981 0.042945404 0.092097409
0 0.047792681 0.092777081
0.089999989 0.047332413 0.092600003
0 0.052588906 0.092245556
0.089999996 0.052472986 0.092436925
0 0.057322051 0.092378326
0.089999996 0.057729907 0.093135357
0 0.062074237 0.092314444
0.089999996 0.062203698 0.092237167
0 0.067547098 0.09275309
0.089999989 0.06744498 0.092419527
0 0.072616823 0.092095941
0.089999981 0.072572604 0.092882857
0 0.07748422 0.092513315
0.090000018 0.077912241 0.092723601
0 0.082282826 0.0920543
0.089999996 0.082670122 0.092599705
0 0.087516807 0.092674293
0.089999981 0.087544419 0.09235324
0.0022428171 0.089999996 0.092543833
0.0068984609 0.089999996 0.092265218
0.012580074 0.089999989 0.092697173
0.017577067 0.089999981 0.092404306
0.022501925 0.089999974 0.092580222
0.027300226 0.089999974 0.092598028
0.032372564 0.089999989 0.092389658
0.037753653 0.089999981 0.092848368
0.042280175 0.089999966 0.092293769
0.047903061 0.089999996 0.092636235
0.052357286 0.089999974 0.092550859
0.057797171 0.089999966 0.092287898
0.062444001 0.089999974 0.092376783
0.06754455 0.089999989 0.092774965
0.072305843 0.089999974 0.092369415
0.077796556 0.089999974 0.092791304
0.082433231 0.089999974 0.09245342
0.087437741 0.089999981 0.09233842
0.0011601554 0.0011445408 0.097534612
0.0076033245 0 0.09752322
0.012221777 0 0.097582467
0.017163042 0 0.097615264
0.022643188 0 0.098046795
0.027726712 0 0.097723715
0.032511782 0 0.097607017
0.037617449 0 0.097926341
0.0422788 0 0.096931778
0.047612976 0 0.097880669
0.052677751 0 0.097392462
0.057596717 0 0.097458936
0.062686302 0 0.097270027
0.067713395 0 0.097547323
0.072745502 0 0.097335309
0.077602617 0 0.097470395
0.082139544 0 0.097338386
0.087580092 0 0.097653195
0.089999974 0.0024764219 0.097315319
0 0.0078040725 0.097740106
0.089999981 0.0073515652 0.097571045
0 0.012696486 0.097687647
0.089999989 0.012578731 0.097522877
0 0.017788185 0.097119898
0.089999996 0.017568024 0.097415164
0 0.022541016 0.097257115
0.089999996 0.022456326 0.097925857
0 0.027668014 0.097632907
0.089999989 0.027243104 0.096795067
0 0.03224482 0.097612351
0.089999974 0.032501683 0.097637728
0 0.037789699 0.097859092
0.089999974 0.036865216 0.097734906
0 0.042753227 0.097694568
0.089999981 0.042110186 0.097826801
0 0.047413137 0.097313836
0.089999996 0.047570642 0.097257875
0 0.05206253 0.097523905
0.089999981 0.052274968 0.097720057
0 0.057486068 0.097895198
0.090000004 0.057333428 0.097280636
0 0.062785 0.097272672
0.089999974 0.062647268 0.097707152
0 0.067660138 0.097258449
0.089999989 0.067198254 0.097351611
0 0.072281606 0.097740196
0.089999989 0.071922123 0.097427048
0 0.077243224 0.09732727
0.089999974 0.077368364 0.097476698
0 0.082445189 0.097545154
0.089999966 0.082511134 0.0978553
0 0.087646991 0.09754537
0.089999989 0.08713904 0.097507007
0.0022113933 0.089999996 0.097794093
0.0077570281 0.089999974 0.097454764
0.01252329 0.089999981 0.097904794
0.017189464 0.089999974 0.097499028
0.022515805 0.089999989 0.097078815
0.027744468 0.089999981 0.09760198
0.032690112 0.089999996 0.097389989
0.037439853 0.089999989 0.097248942
0.042245399 0.089999981 0.097601168
0.047553685 0.089999974 0.097749896
0.052373383 0.089999996 0.097801074
0.056973655 0.089999981 0.097558565
0.062065113 0.089999974 0.097730249
0.066965982 0.089999981 0.097349986
0.072856598 0.089999974 0.097568274
0.0774066 0.089999966 0.097585365
0.082642242 0.089999996 0.097424977
0.087770723 0.089999981 0.097679913
0.0014861514 0.0010569833 0.10259552
0.0073811896 0 0.10237984
0.012686588 0 0.10263564
0.017591709 0 0.10233331
0.022712024 0 0.10241567
0.027143918 0 0.10230097
0.032325812 0 0.10231076
0.037688985 0 0.10249823
0.042137694 0 0.1024263
0.047716275 0 0.10300186
0.05230666 0 0.10217435
0.057614405 0 0.10217246
0.062490404 0 0.10309052
0.067445487 0 0.10304521
0.072676294 0 0.10198777
0.07771565 0 0.10188518
0.082120314 0 0.10223588
0.087394163 0 0.10226297
0.089999989 0.0026855436 0.10257965
0 0.0078512803 0.10245094
0.089999981 0.0077456939 0.10270628
0 0.012509539 0.10262432
0.089999996 0.012791565 0.10266341
0 0.017430907 0.10312369
0.089999989 0.017408788 0.10259034
0 0.022595571 0.10213275
0.090000018 0.02286086 0.10181562
0 0.027518379 0.10254383
0.090000004 0.027320575 0.10266598
0 0.032911781 0.10293011
0.089999996 0.032616589 0.10249174
0 0.037373032 0.10239992
0.089999981 0.037693623 0.10235733
0 0.042594276 0.10275858
0.089999974 0.042755902 0.10275102
0 0.046587713 0.10230352
0.089999989 0.047170468 0.10232189
0 0.05274694 0.10239861
0.089999989 0.052508123 0.10255568
0 0.057646543 0.10209693
0.089999974 0.057337228 0.10221952
0 0.062937923 0.10263463
0.089999974 0.062417526 0.1026562
0 0.067384385 0.10271133
0.089999989 0.067478471 0.10251675
0 0.072188631 0.10240105
0.089999974 0.072714187 0.10226988
0 0.077601902 0.10237704
0.089999989 0.077854604 0.10223724
0 0.082718104 0.10231408
0.089999981 0.082779244 0.10263022
0 0.087515727 0.10221631
0.089999966 0.087399133 0.10254833
0.0022197925 0.089999981 0.10253598
0.0073411404 0.089999996 0.10262986
0.012449933 0.089999996 0.10210528
0.017435569 0.089999974 0.10275514
0.022317184 0.089999989 0.10195091
0.027084205 0.089999974 0.10261285
0.032712635 0.089999974 0.10222467
0.037282769 0.089999981 0.10304181
0.042352084 0.089999974 0.10233264
0.04762781 0.089999989 0.10263392
0.052577525 0.089999981 0.10268325
0.057310876 0.089999966 0.10203803
0.062773973 0.089999981 0.10267783
0.067765854 0.089999974 0.10298086
0.072714508 0.089999989 0.10268341
0.07795132 0.089999981 0.10289346
0.082342312 0.089999981 0.10256881
0.087385617 0.089999989 0.10268488
0.0013695972 0.0012976557 0.10735735
0.0073123714 0 0.10751171
0.012132257 0 0.10704771
0.017212357 0 0.10727155
0.022128189 0 0.10731966
0.027310429 0 0.10715237
0.032640327 0 0.10707424
0.037354041 0 0.10732106
0.042461433 0 0.1074315
0.047326211 0 0.1072378
0.052554011 0 0.10702308
0.057325989 0 0.10698053
0.062536895 0 0.10708611
0.067744516 0 0.10776536
0.072619103 0 0.10775132
0.077677473 0 0.10779186
0.082520805 0 0.10700642
0.087231658 0 0.10758255
0.089999981 0.0027065338 0.10740168
0 0.0078151366 0.10744392
0.089999989 0.0072312658 0.10751349
0 0.012788872 0.10706916
0.089999989 0.012562565 0.10692388
0 0.017548809 0.10772647
0.089999974 0.01750423 0.10752667
0 0.02188164 0.10773978
0.089999989 0.022356343 0.10806798
0 0.027439684 0.10723436
0.089999966 0.027590584 0.10739787
0 0.032514531 0.10759594
0.089999996 0.032644499 0.10786211
0 0.037734471 0.10748143
0.089999996 0.037447657 0.10791356
0 0.042628154 0.10707372
0.089999981 0.042621043 0.10745122
0 0.047598336 0.10732987
0.089999974 0.047112867 0.10757682
0 0.052485738 0.10749973
0.089999966 0.052478395 0.10780186
0 0.057345096 0.10723629
0.089999974 0.05738426 0.10767378
0 0.06330137 0.10774902
0.089999989 0.06266357 0.10730639
0 0.067716852 0.10791223
0.089999974 0.066973247 0.10796882
0 0.072732702 0.10738345
0.089999974 0.072524205 0.10739454
0 0.07768739 0.10753125
0.089999974 0.077636145 0.10742653
0 0.082587153 0.10797492
0.089999981 0.082069501 0.10751504
0 0.087670185 0.10738415
0.089999981 0.087373398 0.10740953
0.0021083523 0.089999981 0.10800523
0.0073957411 0.090000004 0.1076046
0.012473283 0.089999981 0.10737079
0.017454293 0.089999974 0.10721451
0.022416346 0.089999996 0.10723917
0.027497718 0.089999974 0.10744229
0.032398213 0.089999981 0.10757744
0.037634004 0.089999974 0.10738353
0.042251889 0.089999974 0.10747937
0.047388013 0.089999974 0.10758714
0.052564122 0.089999966 0.10772805
0.057424225 0.089999966 0.10776703
0.062635534 0.089999981 0.10792989
0.067829609 0.089999974 0.10752419
0.072685145 0.089999966 0.10713354
0.078021057 0.089999989 0.10747954
0.082609572 0.089999981 0.10751945
0.087353267 0.090000004 0.10733498
0.001059516 0.0012208293 0.11272623
0.0076751169 0 0.11215823
0.012153546 0 0.11219839
0.017659526 0 0.11228025
0.022361919 0 0.11283391
0.027344722 0 0.11249957
0.032409616 0 0.11239032
0.037607621 0 0.11220102
0.042245187 0 0.11222878
0.047965616 0 0.11232746
0.052668165 0 0.11262461
0.057703078 0 0.11276873
0.062971771 0 0.11259163
0.067218319 0 0.11295381
0.072376646 0 0.11200054
0.077593222 0 0.11266734
0.082276985 0 0.11225798
0.08780925 0 0.11230782
0.090000004 0.0025463852 0.1128035
0 0.007526115 0.11212142
0.089999981 0.0074608619 0.11216623
0 0.012868743 0.11270075
0.089999974 0.012544485 0.1124317
0 0.017492224 0.1127212
0.090000004 0.017301159 0.11210692
0 0.022795955 0.1125004
0.089999989 0.022277575 0.11251595
0 0.027918944 0.1121354
0.089999974 0.027561313 0.11242026
0 0.032792613 0.1118674
0.089999981 0.032469336 0.11247172
0 0.037517827 0.11283322
0.090000011 0.037705254 0.11259087
0 0.042345949 0.11243244
0.089999996 0.042368509 0.11271772
0 0.047098387 0.11243664
0.089999974 0.04757987 0.11221704
0 0.052704435 0.11184263
0.089999981 0.05241527 0.11277498
0 0.057651319 0.11236829
0.089999989 0.057322904 0.11251415
0 0.062386937 0.11264604
0.089999989 0.062703282 0.1125168
0 0.067575015 0.11244145
0.089999974 0.067624651 0.11242037
0 0.072065145 0.11239508
0.089999996 0.072180644 0.11244588
0 0.077579148 0.11243226
0.089999981 0.077028498 0.11245632
0 0.082460366 0.11222179
0.089999981 0.082494922 0.11261684
0 0.087805592 0.11258734
0.089999974 0.0878589 0.11261268
0.0028376458 0.089999996 0.11260423
0.0075453171 0.089999981 0.11248127
0.012356383 0.089999989 0.11274105
0.017150644 0.089999981 0.11223453
0.022551132 0.089999974 0.11215218
0.027592216 0.089999989 0.11257312
0.03264251 0.089999974 0.11273188
0.037274845 0.089999981 0.11243521
0.042397086 0.089999981 0.11256083
0.047704864 0.089999996 0.11266693
0.052441116 0.090000004 0.11220431
0.057746682 0.089999981 0.1123161
0.062366147 0.089999981 0.11271303
0.067047656 0.089999974 0.11279874
0.072467603 0.089999989 0.1124585
0.077706382 0.089999981 0.11240569
0.082687542 0.089999974 0.11249787
0.087442271 0.089999996 0.11266797
0.001454503 0.0013234736 0.1176201
0.0080998829 0 0.11775507
0.012031791 0 0.11808384
0.017584207 0 0.11774752
0.022632027 0 0.11761254
0.027278511 0 0.11770251
0.032584991 0 0.11755551
0.037391692 0 0.11773513
0.042620059 0 0.11773222
0.047202442 0 0.11770741
0.052689001 0 0.11769332
0.057569034 0 0.11736937
0.061972506 0 0.11762276
0.067723043 0 0.11780301
0.072533414 0 0.11766051
0.077934265 0 0.11760274
0.082146503 0 0.11754329
0.087155081 0 0.11775868
0.089999989 0.0023754803 0.11760066
0 0.0078141028 0.11766184
0.089999974 0.0075868992 0.1171546
0 0.012781913 0.11737172
0.089999966 0.012624965 0.11757345
0 0.018016497 0.11778188
0.089999966 0.017507363 0.11723284
0 0.022591863 0.11745822
0.089999989 0.022709621 0.11755139
0 0.027358754 0.11771273
0.090000004 0.027768243 0.11796255
0 0.032085389 0.11731151
0.089999974 0.032426681 0.11730841
0 0.037339658 0.11775077
0.090000011 0.036946557 0.11741733
0 0.042450283 0.1176172
0.089999981 0.042523138 0.11813505
0 0.047709245 0.11731178
0.089999974 0.047653344 0.11730862
0 0.052565739 0.11742029
0.089999996 0.052811231 0.11704915
0 0.057761304 0.11763522
0.090000011 0.057189349 0.11709405
0 0.062064242 0.11703649
0.089999989 0.062379684 0.11750671
0 0.067833908 0.117953
0.089999981 0.067169972 0.11733361
0 0.072375886 0.11719366
0.089999996 0.07257773 0.11806199
0 0.077597745 0.11767093
0.089999989 0.07718353 0.11759732
0 0.082957454 0.11791644
0.089999966 0.082612246 0.11736111
0 0.087033369 0.11744891
0.089999974 0.087683707 0.11802682
0.0023419322 0.089999974 0.11748253
0.0073430012 0.089999974 0.11725126
0.012496228 0.089999981 0.11748173
0.017367868 0.090000004 0.11691935
0.022709498 0.089999981 0.11711172
0.027672756 0.089999989 0.11707646
0.032747466 0.089999974 0.11751291
0.037597634 0.089999981 0.11789315
0.042052139 0.089999981 0.11758469
0.047764264 0.089999974 0.11737317
0.052335743 0.089999981 0.11739531
0.057374667 0.089999974 0.11756219
0.062897965 0.089999981 0.11759301
0.067432098 0.089999981 0.11749903
0.072403006 0.089999974 0.11712863
0.077351809 0.089999981 0.11768136
0.082007952 0.089999989 0.11742342
0.087010399 0.089999981 0.11745723
0.0012201048 0.0011696715 0.12258559
0.0075786239 0 0.12269821
0.012389092 0 0.12239642
0.017632516 0 0.12268569
0.022689102 0 0.12293053
0.027885279 0 0.12236505
0.032477379 0 0.12271896
0.037076019 0 0.12218373
0.042128861 0 0.12209548
0.047404259 0 0.12244706
0.052999772 0 0.12239382
0.057217516 0 0.12240058
0.062345982 0 0.12237033
0.067082047 0 0.12244253
0.072588369 0 0.12212694
0.07745932 0 0.12238833
0.083076708 0 0.12283542
0.087424457 0 0.12258612
0.089999974 0.0024930323 0.12255135
0 0.0075957649 0.12251452
0.090000004 0.0076587838 0.1232468
0 0.012383504 0.12248782
0.089999981 0.012101776 0.12248345
0 0.01805025 0.12276503
0.089999989 0.017559351 0.12217863
0 0.022487868 0.12255104
0.089999981 0.022639649 0.12255666
0 0.027223615 0.12240183
0.089999974 0.02778649 0.12221358
0 0.032554574 0.12207719
0.089999974 0.032812312 0.12259742
0 0.037729997 0.12307121
0.089999996 0.037610691 0.12260879
0 0.042765547 0.12282947
0.090000004 0.042733692 0.12266261
0 0.047085118 0.12279335
0.089999981 0.047538642 0.12228628
0 0.052481975 0.12272613
0.089999996 0.052660201 0.12313285
0 0.057597015 0.12204839
0.089999981 0.057815034 0.12248949
0 0.062244441 0.12198715
0.089999989 0.062421899 0.12263535
0 0.067586064 0.12216804
0.090000004 0.067458585 0.12195759
0 0.072415963 0.12259998
0.089999974 0.072575353 0.12238024
0 0.077639505 0.12270759
0.089999996 0.077570476 0.12250967
0 0.082337767 0.12286463
0.089999989 0.082436413 0.12248241
0 0.087433256 0.12263948
0.089999974 0.087099269 0.12275454
0.0023077314 0.090000011 0.12257168
0.0075703585 0.089999981 0.12233604
0.012763875 0.090000011 0.12247869
0.017658006 0.089999981 0.12190571
0.022898255 0.089999966 0.12232728
0.027232479 0.089999989 0.12278388
0.032525767 0.089999974 0.12242985
0.037595339 0.089999981 0.12240693
0.042903394 0.089999981 0.12265089
0.048170537 0.090000004 0.12176232
0.052356899 0.089999989 0.12243325
0.057383679 0.089999996 0.12249368
0.062539853 0.089999981 0.12254983
0.06749513 0.089999974 0.12236227
0.072027378 0.089999989 0.12264758
0.077367499 0.089999981 0.12263712
0.082312346 0.089999981 0.12191153
0.087846741 0.089999996 0.12221391
0.0014903229 0.0009286034 0.12754884
0.0074504511 0 0.12773658
0.012419526 0 0.12708974
0.017262502 0 0.12737548
0.022463595 0 0.12700143
0.027584555 0 0.12741536
0.032698918 0 0.12745368
0.037712157 0 0.12750985
0.042435884 0 0.12779239
0.047549717 0 0.12769775
0.052863587 0 0.12774582
0.057399824 0 0.12751535
0.06236193 0 0.12744394
0.06742347 0 0.12736687
0.072641082 0 0.12757382
0.077237509 0 0.12749825
0.082564652 0 0.12727574
0.087590151 0 0.1276885
0.089999966 0.0024370691 0.12763573
0 0.0073313704 0.12758526
0.089999974 0.0076085725 0.12741871
0 0.012390803 0.12785421
0.089999974 0.012712269 0.12777327
0 0.018103229 0.12770747
0.089999981 0.017601443 0.12759015
0 0.022648089 0.12764309
0.089999989 0.022440305 0.12737288
0 0.027388297 0.12744279
0.090000011 0.027475087 0.12717091
0 0.032832086 0.12766941
0.089999966 0.032619819 0.12715906
0 0.037617452 0.12749302
0.089999989 0.037373941 0.12763686
0 0.042434026 0.12761763
0.089999981 0.042508587 0.12743858
0 0.047333386 0.12752727
0.089999974 0.047771215 0.1276485
0 0.052613091 0.12773301
0.089999974 0.052317537 0.12734812
0 0.057639565 0.1276536
0.089999974 0.057898533 0.12756562
0 0.062578358 0.12762088
0.089999981 0.062323701 0.12737514
0 0.067926079 0.1275885
0.089999989 0.067059562 0.12727112
0 0.072413526 0.12775561
0.089999996 0.072215967 0.12730339
0 0.077351063 0.12777512
0.090000011 0.077488795 0.12797847
0 0.082920782 0.12705494
0.090000004 0.082333893 0.12715571
0 0.087865546 0.12724133
0.089999974 0.087557949 0.1277093
0.0023136355 0.089999974 0.12715665
0.0074625635 0.089999981 0.12770106
0.012533066 0.089999981 0.12763861
0.017256558 0.089999974 0.12710905
