# .PCD v0.7 - Point Cloud Data file format
VERSION 0.7
FIELDS x y z
SIZE 4 4 4
TYPE F F F
COUNT 1 1 1
WIDTH 1419
HEIGHT 1
VIEWPOINT 0 0 0 1 0 0 0
POINTS 1419
DATA ascii
0.03257481 0.059999961 0.0074405186
0.037634905 0.059999958 0.0072333314
0.042238913 0.059999958 0.0075320015
0.04754832 0.059999961 0.0075475504
0.052612171 0.059999958 0.0075715175
0.057258524 0.059999961 0.007380642
0.0010737521 0.0012680741 0.012690793
0.0072155576 0 0.012132674
0.01240388 0 0.012559336
0.017251195 0 0.012691152
0.022211734 0 0.012087435
0.027314579 0 0.012344894
0.03294931 0 0.012525168
0.037424095 0 0.012593385
0.042358443 0 0.012446871
0.047971915 0 0.012726739
0.052518759 0 0.012399404
0.057542935 0 0.012543878
0.059999958 0.0024020493 0.012666486
1.8202035e-17 0.0075362115 0.01232936
0.059999958 0.0073640132 0.012410412
1.6520335e-17 0.012383375 0.013023622
0.059999958 0.012470445 0.012448031
1.4873794e-17 0.017129211 0.012465426
0.059999958 0.017232377 0.012168305
1.298101e-17 0.022584789 0.012554581
0.059999958 0.02223804 0.012759591
1.120893e-17 0.027692469 0.01232881
0.059999958 0.027618079 0.012354861
9.4922524e-18 0.032640446 0.012215488
0.059999965 0.032385208 0.012537762
7.7555147e-18 0.037646256 0.012264987
0.059999973 0.037225459 0.012324419
6.021314e-18 0.042644743 0.012263115
0.059999958 0.042509705 0.012550605
4.4840836e-18 0.04707551 0.012406118
0.059999958 0.047700539 0.012519901
2.5335461e-18 0.052697554 0.012389861
0.059999965 0.052518215 0.012581351
8.7511904e-19 0.057477646 0.012296373
0.059999958 0.057304837 0.012857694
0.0024999217 0.059999958 0.012810013
0.0072613312 0.059999961 0.012687545
0.012687773 0.059999965 0.012209533
0.017633574 0.059999958 0.012311799
0.022654101 0.059999958 0.012494563
0.02762997 0.059999961 0.01249529
0.032312937 0.059999961 0.012689875
0.037498709 0.059999958 0.01245465
0.042510711 0.059999961 0.012618159
0.047743235 0.059999958 0.012505997
0.052557413 0.059999958 0.012568001
0.057420742 0.059999965 0.012369859
0.00095542532 0.0012991683 0.017404731
0.0073706107 0 0.017942343
0.01263514 0 0.017696081
0.017593062 0 0.017892474
0.022561897 0 0.017305287
0.027517436 0 0.017526543
0.032484259 0 0.017478976
0.037118163 0 0.017298095
0.042715549 0 0.017602043
0.04739628 0 0.017903838
0.05219819 0 0.017455606
0.057880946 0 0.017240379
0.059999954 0.0026445305 0.017571863
1.8292548e-17 0.007275329 0.017325949
0.059999958 0.0077368016 0.017350586
1.6486889e-17 0.012479783 0.017622948
0.059999958 0.012569667 0.017478505
1.471684e-17 0.017581595 0.017567558
0.059999958 0.017542465 0.017305223
1.2983171e-17 0.022578571 0.017695136
0.059999958 0.021865984 0.017188475
1.1294647e-17 0.027445406 0.017426899
0.059999958 0.02761995 0.01776563
9.5764842e-18 0.032397673 0.017690537
0.059999961 0.032862209 0.017567629
7.8170065e-18 0.037469022 0.01752203
0.059999965 0.03773864 0.017333226
5.9869186e-18 0.042743877 0.017763391
0.059999958 0.042821966 0.017410954
4.3083276e-18 0.04758209 0.017356627
0.059999969 0.047718044 0.017003274
2.6956793e-18 0.052230231 0.0176368
0.059999961 0.052162744 0.017524885
8.7220591e-19 0.057486042 0.017430278
0.059999958 0.057220336 0.017364996
0.0028451851 0.059999958 0.017438052
0.0071059968 0.059999961 0.017399875
0.012344616 0.059999973 0.017768763
0.017619964 0.059999969 0.017337767
0.022620857 0.059999969 0.017537497
0.027732259 0.059999958 0.017453557
0.03242965 0.059999958 0.017465513
0.03742063 0.059999958 0.017648609
0.042406861 0.059999961 0.017550975
0.047693782 0.059999954 0.017643973
0.05235571 0.059999958 0.017811721
0.057659287 0.059999961 0.017246414
0.001332844 0.0011340678 0.022615895
0.0074350475 0 0.022572039
0.012631028 0 0.022537386
0.01717384 0 0.02239335
0.022726778 0 0.022441497
0.027175885 0 0.022331493
0.032515671 0 0.02250148
0.037635513 0 0.022540735
0.042225733 0 0.022362689
0.047655616 0 0.02263773
0.052600976 0 0.022758253
0.057242058 0 0.022887938
0.059999961 0.0024609705 0.022533886
1.8271675e-17 0.007335484 0.022367399
0.059999965 0.0077134096 0.022881571
1.646319e-17 0.012548094 0.022490764
0.059999961 0.012809717 0.022502901
1.4733961e-17 0.017532252 0.022504551
0.059999958 0.017581401 0.022514772
1.3079338e-17 0.022301383 0.022642039
0.059999961 0.02263212 0.022891194
1.1257025e-17 0.02755384 0.022759428
0.059999961 0.027385112 0.023057116
9.5411479e-18 0.032499507 0.022708317
0.059999958 0.032548636 0.022770979
7.7703651e-18 0.037603453 0.022566015
0.059999969 0.037572335 0.022567768
6.1927691e-18 0.042150561 0.022344736
0.059999969 0.042631563 0.022632772
4.3259507e-18 0.047531303 0.022700869
0.059999961 0.047679815 0.022652246
2.5668595e-18 0.052601531 0.022633117
0.059999961 0.052488063 0.022459842
9.3279845e-19 0.05731139 0.022522388
0.059999954 0.057393324 0.022727193
0.0024069799 0.059999958 0.022409534
0.0073310966 0.059999961 0.022355065
0.012341774 0.059999965 0.022320744
0.017378246 0.059999965 0.022665994
0.022414342 0.059999958 0.022517081
0.027240267 0.059999961 0.022936614
0.032444589 0.059999958 0.022640742
0.037371363 0.059999958 0.022527209
0.042647295 0.059999958 0.022389315
0.047523074 0.059999961 0.022554599
0.052740086 0.059999958 0.022393337
0.05744243 0.059999958 0.022862175
0.0011211819 0.0014306816 0.027453411
0.0073802541 0 0.027664555
0.01232014 0 0.027640872
0.017192775 0 0.027420873
0.022782061 0 0.027439103
0.027587792 0 0.027415384
0.032474015 0 0.027375411
0.037356261 0 0.027912878
0.042364873 0 0.027175382
0.047277849 0 0.027600601
0.052516457 0 0.027415918
0.057611007 0 0.027627006
0.059999958 0.0027556305 0.027252503
1.8231537e-17 0.0074511738 0.027681643
0.059999961 0.0075014471 0.027312854
1.6506654e-17 0.012422822 0.027409075
0.059999961 0.012606156 0.027427534
1.4782748e-17 0.017391631 0.027762923
0.059999958 0.017695762 0.027570581
1.308655e-17 0.022280596 0.027557237
0.059999958 0.02260416 0.027489765
1.1197923e-17 0.027724188 0.027508629
0.059999961 0.027447466 0.027429661
9.4723149e-18 0.03269792 0.027258687
0.059999961 0.032284137 0.027196145
7.8189702e-18 0.037463356 0.027555257
0.059999958 0.037436616 0.027887706
6.1560204e-18 0.042256482 0.027851777
0.059999961 0.04281399 0.027349487
4.3553499e-18 0.047446571 0.027465485
0.059999965 0.047475226 0.027597278
2.6538454e-18 0.052350812 0.027460743
0.059999958 0.052595705 0.02753382
8.8354294e-19 0.057453357 0.027404834
0.059999958 0.057582922 0.027341947
0.0024161807 0.059999958 0.027395273
0.007628582 0.059999958 0.027869122
0.01240677 0.059999965 0.027512619
0.017395526 0.059999965 0.027399775
0.022328367 0.059999961 0.027836818
0.027483586 0.059999965 0.027396269
0.032474197 0.059999954 0.027442614
0.037431233 0.059999958 0.027662558
0.04234359 0.059999958 0.027701031
0.047384098 0.059999958 0.027645484
0.052827496 0.059999958 0.027214261
0.057561401 0.059999961 0.027995644
0.0012727226 0.0012867476 0.032483216
0.0073263799 0 0.032326967
0.012445679 0 0.032592814
0.017586693 0 0.032396987
0.022154555 0 0.032395862
0.027111409 0 0.032410346
0.032575168 0 0.032459043
0.037424657 0 0.032281119
0.042372219 0 0.032588508
0.04725891 0 0.032834176
0.052071739 0 0.032505039
0.057734169 0 0.032527555
0.059999958 0.002333292 0.032683566
1.8121962e-17 0.0077670012 0.032282103
0.059999958 0.0075129434 0.032621898
1.6511585e-17 0.012408607 0.032524768
0.059999961 0.012786674 0.032237973
1.4686301e-17 0.017669627 0.032295521
0.059999958 0.017727964 0.032790631
1.3006912e-17 0.02251013 0.032222021
0.059999958 0.022274662 0.032633398
1.1218516e-17 0.027664836 0.032686461
0.059999961 0.027579753 0.032796849
9.4223201e-18 0.032842014 0.032776129
0.059999969 0.032343313 0.032311112
7.9790992e-18 0.037001822 0.032614551
0.059999958 0.037329845 0.03226164
6.0428824e-18 0.042582575 0.032594014
0.059999958 0.042563003 0.032195412
4.4239609e-18 0.047248803 0.032617673
0.059999958 0.047310956 0.032974657
2.5790952e-18 0.052566275 0.032753043
0.059999958 0.052497044 0.032811824
9.0496888e-19 0.05739161 0.032780524
0.021953044 0.059999995 0.033372454
0.059999958 0.05733636 0.032811087
0.0021439139 0.059999958 0.032144289
0.0070820912 0.059999958 0.032524627
0.012515008 0.059999961 0.032822344
0.017510347 0.059999961 0.032562669
0.022473607 0.059999961 0.032708418
0.027513966 0.059999965 0.032524228
0.032493651 0.059999958 0.032448545
0.037634771 0.059999961 0.032264255
0.04264408 0.059999958 0.032684729
0.047378555 0.059999958 0.032711901
0.052508719 0.059999961 0.032477681
0.0580252 0.059999958 0.032180537
0.0013805082 0.0010307963 0.037494101
0.0076714656 0 0.037386425
0.012564896 0 0.037438352
0.017289007 0 0.037688527
0.022245687 0 0.037331615
0.027590204 0 0.037491601
0.032417871 0 0.037289564
0.037346981 0 0.037439469
0.042392094 0 0.03717491
0.047579665 0 0.037602488
0.052521113 0 0.037373334
0.057610963 0 0.037554402
0.059999958 0.002412566 0.037422482
1.824839e-17 0.0074026007 0.037130039
0.059999961 0.0074024876 0.0374729
1.6465545e-17 0.012541305 0.037509941
0.059999961 0.012289376 0.03726827
1.4746289e-17 0.017496714 0.037721027
0.059999958 0.017675608 0.037466902
1.2935333e-17 0.022716437 0.037433084
0.059999958 0.022350116 0.037339985
1.1272401e-17 0.027509514 0.037933812
0.059999958 0.027634418 0.037602972
9.5525886e-18 0.032466546 0.037423301
0.059999995 0.033043284 0.038015518
0.059999961 0.032682721 0.03733629
7.8365817e-18 0.037412595 0.037185427
0.059999961 0.037840426 0.037506908
6.0214373e-18 0.042644389 0.037366945
0.059999961 0.042846076 0.037275631
4.3019674e-18 0.047600426 0.037286267
0.059999958 0.047368288 0.037400696
2.7009989e-18 0.052214902 0.037554972
0.059999958 0.052261066 0.037697341
9.6312847e-19 0.057223979 0.037183009
0.059999954 0.057467677 0.037528895
0.0026222144 0.059999958 0.037375763
0.0075977948 0.059999958 0.03761347
0.01239414 0.059999958 0.037753858
0.017427439 0.059999969 0.037037585
0.022280108 0.059999961 0.037565775
0.027526962 0.059999958 0.037687305
0.032253057 0.059999961 0.037201282
0.037470765 0.059999958 0.037460286
0.042235654 0.059999958 0.037602492
0.047559243 0.059999961 0.037209369
0.05225369 0.059999961 0.037394334
0.057696182 0.059999958 0.03749815
0.0013142634 0.0010937471 0.042415138
0.0075061084 0 0.04272018
0.012710673 0 0.042086892
0.017247245 0 0.042591318
0.022779541 0 0.042473637
0.027468275 0 0.042307373
0.032724224 0 0.042370152
0.03746023 0 0.042677801
0.042434566 0 0.042518947
0.047471747 0 0.042191327
0.05221466 0 0.042666253
0.057463165 0 0.042655446
0.059999961 0.0029117323 0.042663015
1.8247846e-17 0.0074041607 0.042501062
0.059999961 0.0076272199 0.042694706
1.6548448e-17 0.01230236 0.042182405
0.059999961 0.012403905 0.042395048
1.4841132e-17 0.017223354 0.042613447
0.059999961 0.01794422 0.042911611
1.2923129e-17 0.022751622 0.042272162
0.059999954 0.022639528 0.042727675
1.1284313e-17 0.027475191 0.04234194
0.059999958 0.027656395 0.042345371
9.4416844e-18 0.032786191 0.042098183
0.059999965 0.032294463 0.042378321
7.9909245e-18 0.036967739 0.042486202
0.059999958 0.037775733 0.042873818
6.1391587e-18 0.042305093 0.042528421
0.059999995 0.043003049 0.040760297
0.059999965 0.042950597 0.042359781
4.2982402e-18 0.04761117 0.042549353
0.059999958 0.0470994 0.042773142
2.5448121e-18 0.052665081 0.042335611
0.059999958 0.052571159 0.04251603
9.1929451e-19 0.057350311 0.042679526
0.059999961 0.057294365 0.042583276
0.002187809 0.059999958 0.042553209
0.0075201364 0.059999958 0.042533062
0.012718013 0.059999954 0.042608552
0.017826131 0.059999961 0.042538535
0.022309888 0.059999958 0.042784423
0.027518436 0.059999958 0.042681441
0.032650147 0.059999958 0.042365063
0.03747154 0.059999958 0.042611245
0.042190224 0.059999961 0.042562585
0.047229327 0.059999965 0.042423327
0.052759215 0.059999958 0.042542011
0.057650104 0.059999961 0.042458285
0.0013200575 0.0012473157 0.047478393
0.00774391 0 0.047349047
0.012397099 0 0.047354009
0.017239382 0 0.047387704
0.022190336 0 0.047560085
0.027495744 0 0.047284298
0.032449655 0 0.047359742
0.037236825 0 0.047509998
0.042452458 0 0.047579031
0.047258262 0 0.047467984
0.052326459 0 0.047642156
0.057541762 0 0.047541369
0.059999958 0.0025735067 0.047371116
1.8129807e-17 0.0077443961 0.047810256
0.059999958 0.0074467999 0.04761789
1.6462251e-17 0.012550799 0.047723655
0.059999961 0.012210833 0.047371406
1.4746976e-17 0.017494744 0.047552355
0.059999961 0.017817222 0.047641307
1.2907207e-17 0.02279751 0.047186699
0.059999958 0.022885298 0.047696821
1.1303105e-17 0.027421026 0.047602434
0.059999958 0.027322635 0.047047753
9.5013621e-18 0.032614198 0.047653142
0.059999961 0.032242566 0.047175728
7.8513345e-18 0.037370067 0.047229469
0.059999961 0.037836969 0.047292545
6.0776988e-18 0.042482231 0.047372274
0.059999958 0.042445097 0.047503427
4.4250726e-18 0.047245596 0.047377843
0.059999958 0.047732141 0.047783833
2.6923747e-18 0.052239764 0.047710594
0.059999958 0.052620467 0.047518507
9.4272234e-19 0.057282772 0.04741649
0.059999958 0.057308223 0.047150221
0.0026079405 0.059999961 0.047787767
0.0072891316 0.059999961 0.04741459
0.012360068 0.059999958 0.047551434
0.017628035 0.059999958 0.047465608
0.022269687 0.059999969 0.047742765
0.027736723 0.059999961 0.047816455
0.032484017 0.059999958 0.047469791
0.037837312 0.059999958 0.047388211
0.042381164 0.059999961 0.047251716
0.047230106 0.059999958 0.047683924
0.052619353 0.059999961 0.047257431
0.057521991 0.059999965 0.047637943
0.0012241658 0.001104141 0.052468028
0.0073482064 0 0.052661564
0.012493929 0 0.052731238
0.017587129 0 0.052462634
0.022609076 0 0.052764136
0.027859557 0 0.052446902
0.032539874 0 0.052587431
0.037480693 0 0.052269623
0.042445306 0 0.052287318
0.047397088 0 0.052168604
0.052574985 0 0.052366205
0.057496902 0 0.052262414
0.059999958 0.0028765958 0.052555807
1.8094195e-17 0.0078470381 0.052397072
0.059999958 0.0075984164 0.052791178
1.6537887e-17 0.012332788 0.052701462
0.059999961 0.012677843 0.052406482
1.4781727e-17 0.017394578 0.052461147
0.059999958 0.017347071 0.052557956
1.300393e-17 0.022518724 0.052348249
0.059999961 0.022535451 0.052795928
1.123721e-17 0.027610959 0.052449103
0.059999958 0.027749529 0.052422721
9.4519976e-18 0.032756474 0.052379735
0.059999973 0.032171395 0.052022625
7.8482036e-18 0.037379093 0.052309506
0.059999961 0.037576396 0.052322354
6.1077722e-18 0.042395547 0.052604899
0.059999958 0.042611651 0.052599415
4.4298314e-18 0.04723189 0.052507229
0.059999958 0.047198795 0.05273138
2.6083195e-18 0.052482031 0.052562952
0.059999958 0.052340366 0.052604586
9.1099097e-19 0.057374246 0.052570689
0.059999958 0.057529211 0.052420247
0.0027486575 0.059999958 0.052437756
0.0076324181 0.059999958 0.052806709
0.012617102 0.059999961 0.05256163
0.017446168 0.059999961 0.052540544
0.022811132 0.059999969 0.052431822
0.027453421 0.059999961 0.052481089
0.032454886 0.059999958 0.052542046
0.037712865 0.059999958 0.052338619
0.042689323 0.059999958 0.052306622
0.04775564 0.059999958 0.052820526
0.052724421 0.059999958 0.052600399
0.057222337 0.059999958 0.052600496
0.0013190289 0.00098517095 0.057442747
0.0075649186 0 0.057309836
0.012365238 0 0.057797838
0.017568858 0 0.05773529
0.022549404 0 0.057596546
0.027720321 0 0.057727035
0.032733545 0 0.057422679
0.037128583 0 0.057543691
0.04249128 0 0.057723999
0.047277864 0 0.05726333
0.052567448 0 0.057418846
0.057769287 0 0.057393305
0.059999958 0.0027108497 0.057689916
1.8222207e-17 0.0074780551 0.057350885
0.059999958 0.0073336009 0.057637982
1.638956e-17 0.012760308 0.057600211
0.059999961 0.012179809 0.057295728
1.4822961e-17 0.017275734 0.057340112
0.059999961 0.017362515 0.057332106
1.3002867e-17 0.022521788 0.057555985
0.059999958 0.022636414 0.057287816
1.1176899e-17 0.027784787 0.057662565
0.059999958 0.02790094 0.057901122
9.6596067e-18 0.03215808 0.057648912
0.059999965 0.032474309 0.05727518
7.9046852e-18 0.037216295 0.057736993
0.059999961 0.037511572 0.057428718
6.0722588e-18 0.042497914 0.057552643
0.059999958 0.042836465 0.057467211
4.3430382e-18 0.047482047 0.057438977
0.059999961 0.04748733 0.057803504
2.6344749e-18 0.052406654 0.057446666
0.059999961 0.052738864 0.057599917
8.4855837e-19 0.057554193 0.057613324
0.059999958 0.057984561 0.057489607
0.0020963654 0.059999958 0.057377592
0.0075420034 0.059999961 0.057329729
0.012293986 0.059999958 0.057739787
0.017654428 0.059999961 0.057588171
0.022747012 0.059999958 0.057331998
0.02732279 0.059999961 0.057555139
0.03240414 0.059999958 0.057239249
0.03727217 0.059999961 0.057752125
0.043020476 0.059999969 0.057887331
0.047997873 0.059999961 0.057629362
0.052568514 0.059999958 0.057415623
0.057718825 0.059999958 0.057834905
0.0012422992 0.0013804265 0.062422656
0.0075931144 0 0.062638655
0.012509546 0 0.06268657
0.017452544 0 0.062539183
0.022292145 0 0.062956207
0.027307691 0 0.062458105
0.032379985 0 0.06252984
0.037490666 0 0.062498242
0.042103559 0 0.062511496
0.047533311 0 0.062469393
0.052633952 0 0.062132001
0.05759709 0 0.062137395
0.059999958 0.0029405332 0.06238975
1.8192498e-17 0.0075637056 0.062388137
0.059999958 0.0075759883 0.062331997
1.6573475e-17 0.012230221 0.062474746
0.059999961 0.012203769 0.062360868
1.4663437e-17 0.017735522 0.062354993
0.059999958 0.017139951 0.06199085
1.2995009e-17 0.02254444 0.062118758
0.059999961 0.022559499 0.062680937
1.1376027e-17 0.027210834 0.062773347
0.059999961 0.027662857 0.062431395
9.6501512e-18 0.032185342 0.062555127
0.059999958 0.032523163 0.06257984
7.8176972e-18 0.037467029 0.062430922
0.059999958 0.037445378 0.062618427
6.1825166e-18 0.042180113 0.062456254
0.059999961 0.042193621 0.062511809
4.3084773e-18 0.047581665 0.062111661
0.059999961 0.047452573 0.062489428
2.5607336e-18 0.052619193 0.062643297
0.059999958 0.052275699 0.062609062
9.2639214e-19 0.05732986 0.062646076
0.059999958 0.057442658 0.062477518
0.0025502804 0.059999958 0.062444251
0.0078253467 0.059999958 0.062643081
0.01279623 0.059999958 0.062691912
0.017466037 0.059999961 0.06255012
0.022517273 0.059999961 0.062088612
0.027351236 0.059999958 0.062116269
0.032563709 0.059999961 0.062452506
0.037627622 0.059999961 0.062412854
0.0421056 0.059999961 0.062545381
0.047462828 0.059999961 0.062362388
0.052342173 0.059999961 0.062809639
0.057363018 0.059999961 0.062588647
0.0012227099 0.0012479189 0.067608491
0.007402 0 0.067385718
0.01233809 0 0.067670971
0.01774182 0 0.067542538
0.022483593 0 0.067316227
0.027472176 0 0.067473918
0.032728277 0 0.067710124
0.037312951 0 0.06748379
0.042349998 0 0.067670465
0.047454819 0 0.067578793
0.05217959 0 0.067506835
0.057215724 0 0.067200601
0.059999965 0.0024596239 0.067448162
1.8139409e-17 0.0077167456 0.067496426
0.059999961 0.0073448122 0.067580149
1.6359927e-17 0.012845717 0.067472629
0.059999961 0.012528954 0.06760972
1.4707265e-17 0.017609205 0.067346409
0.059999961 0.0174243 0.067073852
1.3089878e-17 0.022270992 0.067413919
0.059999961 0.022081068 0.067594297
1.129025e-17 0.027458077 0.067720167
0.059999958 0.027535535 0.067788839
9.5283125e-18 0.032536507 0.067505784
0.059999958 0.032522179 0.067307062
7.7222e-18 0.037742279 0.067736059
0.059999958 0.037620265 0.067475699
6.1660347e-18 0.04222763 0.067313023
0.059999958 0.042344879 0.067312434
4.3325706e-18 0.047512215 0.067330435
0.059999958 0.047359202 0.067740187
2.6596758e-18 0.052334007 0.067620583
0.059999961 0.052184049 0.067265049
8.7182252e-19 0.057487156 0.067232952
0.059999958 0.05772198 0.067528494
0.0027948264 0.059999958 0.067495398
0.0076203574 0.059999954 0.06768278
0.012604777 0.059999958 0.067182451
0.017471226 0.059999954 0.067742452
0.022896247 0.059999958 0.067532293
0.02712887 0.059999961 0.067257248
0.03276515 0.059999965 0.067450531
0.037696641 0.059999958 0.067657374
0.042676959 0.059999958 0.067504466
0.047391061 0.059999958 0.067382924
0.052543581 0.059999961 0.067586109
0.057633009 0.059999961 0.06757462
0.001233442 0.0013662827 0.07260479
0.0073255668 0 0.072294921
0.012611966 0 0.072596267
0.017450633 0 0.072771065
0.022606114 0 0.072571211
0.027370501 0 0.072629027
0.032380801 0 0.072794892
0.037829693 0 0.072461449
0.042622779 0 0.072267227
0.047421366 0 0.072643049
0.052607242 0 0.072797365
0.057881825 0 0.072647989
0.059999973 0.0024841768 0.072464481
1.8197393e-17 0.0075495848 0.072832629
0.059999965 0.0073914323 0.072420657
1.6404065e-17 0.012718502 0.072246775
0.059999958 0.012776279 0.072445855
1.4780255e-17 0.017398812 0.072309814
0.059999973 0.017126933 0.07236819
1.3023051e-17 0.022463618 0.072769523
0.059999961 0.022425786 0.072831228
1.1260275e-17 0.027544469 0.072664253
0.059999954 0.027687924 0.072542518
9.5006938e-18 0.03261612 0.072189778
0.059999958 0.032216609 0.072499931
7.9192717e-18 0.037174251 0.072253123
0.059999954 0.037732646 0.07234019
6.0786856e-18 0.042479388 0.072485954
0.059999958 0.042798933 0.072270662
4.2281163e-18 0.047813296 0.072600231
0.059999958 0.047390677 0.072908245
2.718684e-18 0.052163929 0.072225168
0.059999958 0.052359201 0.072435088
8.8478433e-19 0.057449806 0.072554789
0.059999961 0.05725538 0.072554097
0.0025294062 0.059999958 0.072848819
0.0080329059 0.059999961 0.072293743
0.012475049 0.059999958 0.072699144
0.017944748 0.059999958 0.072418511
0.022527272 0.059999958 0.07262677
0.02750089 0.059999958 0.072245993
0.032641426 0.059999969 0.07297682
0.037420299 0.059999961 0.072482988
0.042589981 0.059999961 0.072553717
0.047449678 0.059999961 0.07262411
0.052781735 0.059999973 0.07277102
0.057888329 0.059999958 0.072686292
0.0012018785 0.001201085 0.07753443
0.0073088291 0 0.077560335
0.012576154 0 0.077564023
0.017428249 0 0.077532411
0.022372736 0 0.077552781
0.027531104 0 0.077766962
0.03255593 0 0.077846207
0.037265033 0 0.077409603
0.04232613 0 0.077084593
0.047781911 0 0.077348463
0.052420944 0 0.077624597
0.057442956 0 0.07729204
0.059999958 0.0023190381 0.077753395
1.8225181e-17 0.0074694967 0.07760267
0.059999961 0.0073986612 0.077509679
1.6549775e-17 0.012298529 0.077536844
0.059999969 0.012240372 0.077829227
1.4707114e-17 0.017609634 0.077964425
0.059999961 0.017337287 0.077411368
1.2982019e-17 0.022581879 0.077359267
0.059999969 0.022716144 0.077655122
1.1207185e-17 0.027697498 0.077139758
0.059999965 0.027713828 0.077437922
9.5967807e-18 0.032339163 0.077600889
0.059999958 0.03246345 0.077151328
7.8362227e-18 0.037413631 0.07749138
0.059999965 0.037455689 0.077807084
6.0995459e-18 0.042419259 0.077662773
0.059999961 0.04234197 0.077533834
4.3296991e-18 0.047520485 0.077628173
0.059999954 0.047614004 0.077839762
2.6362077e-18 0.052401643 0.077796713
0.059999958 0.052567657 0.077426113
9.3408182e-19 0.05730769 0.077646926
0.059999958 0.057387687 0.077640578
0.0022508437 0.059999958 0.077218205
0.0078131864 0.059999958 0.077412799
0.012505161 0.059999958 0.077332325
0.017504236 0.059999958 0.077464379
0.022392033 0.059999958 0.077615947
0.027587544 0.059999961 0.07754077
0.03269279 0.059999961 0.077473745
0.037606362 0.059999965 0.077891171
0.042479813 0.059999961 0.077239312
0.047580045 0.059999965 0.077572525
0.052521821 0.059999965 0.077359445
0.057029832 0.059999965 0.077542052
0.0011704206 0.0015722293 0.082499251
0.0073740538 0 0.082564138
0.012661427 0 0.082079314
0.017359886 0 0.081969991
0.022420708 0 0.082765751
0.027484754 0 0.082397275
0.032574248 0 0.082680501
0.037470516 0 0.082247257
0.042704143 0 0.082440004
0.047261368 0 0.082580462
0.052666385 0 0.08247003
0.057629764 0 0.082720175
0.059999961 0.0023790731 0.082654186
1.822356e-17 0.0074741622 0.082340635
0.059999958 0.0077283392 0.08251635
1.6515582e-17 0.012397089 0.082063757
0.059999969 0.012410687 0.08286383
1.4712107e-17 0.017595241 0.082419097
0.059999961 0.017932395 0.082467511
1.3200825e-17 0.021951227 0.082404196
0.059999961 0.022588024 0.082470164
1.1132793e-17 0.027911905 0.082595274
0.059999958 0.027365167 0.082537971
9.6099982e-18 0.032301065 0.082968004
0.059999965 0.032267813 0.082360916
7.8099449e-18 0.037489373 0.082125358
0.059999958 0.037323307 0.082426623
6.0469103e-18 0.042570971 0.082450941
0.059999965 0.042582061 0.082559116
4.375491e-18 0.04738852 0.082853928
0.059999958 0.047751937 0.08221209
2.5752486e-18 0.052577347 0.082578309
0.059999958 0.052311197 0.082465947
9.2055224e-19 0.05734669 0.082703106
0.059999958 0.057455752 0.08255545
0.0030575823 0.059999954 0.082584791
0.0076520545 0.059999958 0.082620621
0.012695048 0.059999958 0.082342632
0.017578593 0.059999958 0.082388937
0.022232791 0.059999958 0.082369022
0.027383776 0.059999958 0.082754359
0.032415926 0.059999965 0.082663834
0.037256271 0.059999961 0.082335778
0.042509753 0.059999965 0.082407206
0.047579676 0.059999958 0.082479648
0.052582625 0.059999987 0.082616948
0.057331271 0.059999965 0.082688697
0.0011721923 0.0016033885 0.087599769
0.0074922261 0 0.087681495
0.012554756 0 0.087448515
0.017544251 0 0.087505899
0.022310717 0 0.087461948
0.027750624 0 0.087675147
0.032664552 0 0.087402835
0.037336119 0 0.087529175
0.042347185 0 0.087468415
0.047378335 0 0.087642647
0.052513659 0 0.0879483
0.057659943 0 0.087785088
0.059999965 0.0026148038 0.087525211
1.8177249e-17 0.00760765 0.087733023
0.059999961 0.0073778979 0.087347016
1.6486719e-17 0.012480273 0.087583482
0.059999961 0.012126925 0.087952174
1.4641735e-17 0.017798077 0.087366745
0.059999969 0.01726746 0.087703787
1.3014153e-17 0.022489257 0.087744892
0.059999965 0.022345768 0.08759436
1.1227533e-17 0.027638834 0.087380335
0.059999961 0.02793033 0.087656021
9.4636543e-18 0.032722883 0.087479144
0.059999965 0.032613527 0.087500311
7.8480117e-18 0.037379649 0.087504193
0.059999958 0.037573878 0.087340645
6.083767e-18 0.042464733 0.087203927
0.059999958 0.042481769 0.087284148
4.2544372e-18 0.047737431 0.087650031
0.059999961 0.047522787 0.087149054
2.5677016e-18 0.05259911 0.0873743
0.059999965 0.052622382 0.087507412
9.5462205e-19 0.057248488 0.087653615
0.059999958 0.057240091 0.08748769
0.0023645887 0.059999961 0.087776288
0.0072183604 0.059999958 0.08752609
0.012460724 0.059999961 0.087311722
0.01737486 0.059999958 0.087565236
0.022222769 0.059999961 0.087634519
0.027443459 0.059999958 0.087756917
0.032761302 0.059999965 0.087559536
0.037697773 0.059999961 0.087519147
0.042468671 0.059999958 0.087480389
0.047423955 0.059999961 0.087719657
0.052429225 0.059999958 0.087304153
0.057568956 0.059999954 0.087390795
0.0011756825 0.0014293327 0.092487156
0.0073940228 0 0.092554204
0.012415982 0 0.092479609
0.017566383 0 0.092507057
0.022648407 0 0.092514858
0.027593242 0 0.092500143
0.032714609 0 0.092426188
0.03730711 0 0.092214741
0.042250115 0 0.092448644
0.047342706 0 0.092424631
0.052530367 0 0.09215229
0.057561539 0 0.092333958
0.059999961 0.0027317174 0.092438601
1.8233046e-17 0.0074468227 0.092223629
0.059999961 0.0072581209 0.092787988
1.6455441e-17 0.012570425 0.092507124
0.059999958 0.012376482 0.092280596
1.4693419e-17 0.017649105 0.092615061
0.059999961 0.017423322 0.092240922
1.302789e-17 0.022449667 0.09276966
0.059999961 0.022475677 0.092650101
1.1216811e-17 0.027669752 0.092232518
0.059999969 0.027418206 0.092611596
9.560518e-18 0.032443695 0.092725433
0.059999961 0.032529078 0.092642434
7.7937379e-18 0.037536088 0.092542008
0.059999961 0.037595775 0.092525966
6.068271e-18 0.042509396 0.092502475
0.059999958 0.042384394 0.09293355
4.3668841e-18 0.047413297 0.092506401
0.059999954 0.047906253 0.092369571
2.778826e-18 0.051990591 0.092576012
0.059999965 0.052567191 0.092880659
7.7433866e-19 0.057768133 0.09242437
0.059999961 0.057286199 0.092431299
0.0027176328 0.059999965 0.09251716
0.007726239 0.059999958 0.092479497
0.012502737 0.059999958 0.092378572
0.01748863 0.059999958 0.092534594
0.022758765 0.059999961 0.092617072
0.027387807 0.059999961 0.092397787
0.032214828 0.059999961 0.09268409
0.037729938 0.059999958 0.092656434
0.042529933 0.059999961 0.092612065
0.047387965 0.059999965 0.092355654
0.052413214 0.059999965 0.092443228
0.057250913 0.059999958 0.092459597
0.0012971997 0.0011405624 0.097553797
0.0074738143 0 0.097146012
0.012489735 0 0.097310901
0.017537601 0 0.097332895
0.022313686 0 0.097557724
0.027244331 0 0.097647257
0.032642834 0 0.097540103
0.037328742 0 0.097457245
0.042451773 0 0.097737521
0.047680102 0 0.097342044
0.052847095 0 0.097372867
0.057726078 0 0.097286098
0.059999958 0.002716261 0.097398125
1.818569e-17 0.0075833215 0.097445406
0.059999969 0.0076219211 0.097443387
1.6495541e-17 0.012454841 0.097651742
0.059999969 0.012173171 0.097920895
1.4829343e-17 0.017257327 0.097494014
0.059999961 0.017411048 0.097481392
1.3017358e-17 0.022480031 0.097529359
0.059999969 0.022946481 0.09730465
1.1371885e-17 0.027222777 0.097473145
0.059999958 0.027469499 0.097568378
9.6359196e-18 0.032226358 0.097364753
0.059999965 0.032525845 0.097854301
7.7191783e-18 0.037750997 0.09751606
0.059999958 0.037490234 0.097679727
5.8796469e-18 0.043053072 0.097616784
0.059999961 0.04221322 0.097513162
4.3675194e-18 0.047411483 0.097593009
0.059999958 0.047660049 0.097435929
2.5131954e-18 0.052756209 0.097286142
0.059999958 0.052599076 0.097025238
8.4029577e-19 0.057578024 0.097517528
0.059999961 0.057373077 0.097218387
0.0026827576 0.059999958 0.0977154
0.0075778607 0.059999965 0.097354382
0.012445594 0.059999958 0.097319983
0.017809886 0.059999958 0.097148508
0.022544833 0.059999965 0.097500287
0.027390141 0.059999958 0.097545683
0.032530397 0.059999961 0.097276755
0.037296228 0.059999961 0.097554795
0.042476531 0.059999961 0.097366035
0.047678225 0.059999965 0.09728238
0.052756678 0.059999958 0.097758099
0.057772856 0.059999965 0.097455561
0.0013189744 0.0011064335 0.1025236
0.0073316512 0 0.10269131
0.012093782 0 0.10255913
0.017349148 0 0.10266394
0.022529591 0 0.102612
0.027360465 0 0.10254775
0.032518908 0 0.10249843
0.037388969 0 0.10225841
0.042066887 0 0.10231687
0.047424935 0 0.10260021
0.052548259 0 0.10261827
0.057164352 0 0.10274806
0.059999958 0.0025681164 0.10261384
1.8258541e-17 0.007373339 0.10240718
0.059999958 0.0076370267 0.1028455
1.6537402e-17 0.012334186 0.10272688
0.059999961 0.012451307 0.10271835
1.4706974e-17 0.017610047 0.10247914
0.059999961 0.017788334 0.102635
1.3026478e-17 0.022453735 0.10253446
0.059999969 0.022940723 0.10253505
1.1173313e-17 0.027795119 0.10244868
0.059999958 0.027817812 0.10277343
9.4936164e-18 0.032636516 0.10253184
0.059999961 0.032466885 0.10254772
7.8350862e-18 0.037416901 0.10284504
0.059999961 0.037654862 0.10257255
5.9513097e-18 0.04284652 0.10256003
0.059999961 0.042456098 0.10228869
4.3395934e-18 0.047491971 0.10234591
0.059999973 0.047647223 0.1030632
2.6664864e-18 0.052314378 0.10254866
0.059999965 0.052509833 0.10290238
8.1441897e-19 0.057652611 0.10248103
0.059999961 0.057647575 0.10232321
0.0022420951 0.059999958 0.10253684
0.0074671684 0.059999965 0.10263284
0.012036569 0.059999958 0.10230639
0.017254364 0.059999961 0.10215914
0.022511007 0.059999969 0.10243063
0.027333112 0.059999965 0.10229582
0.032645151 0.059999958 0.10247246
0.037545577 0.059999961 0.10246936
0.04258452 0.059999961 0.10242817
0.047355689 0.059999961 0.1021434
0.052417565 0.059999961 0.10231712
0.057205591 0.059999965 0.10248818
0.00090881152 0.0014330007 0.10774286
0.0070221564 0 0.10753545
0.012336688 0 0.10728038
0.017620267 0 0.10761372
0.02249933 0 0.10777491
0.027339287 0 0.10751116
0.032603148 0 0.10784864
0.037500415 0 0.10776768
0.042616729 0 0.10784412
0.047608905 0 0.10761929
0.052318055 0 0.10782249
0.05783233 0 0.1072453
0.059999954 0.0025667429 0.10751641
1.8228693e-17 0.00745937 0.10770537
0.059999965 0.00729645 0.1078165
1.6457805e-17 0.012563619 0.10698498
0.059999961 0.012274516 0.10752125
1.4607654e-17 0.017896304 0.10748035
0.059999958 0.017492739 0.10737215
1.3034628e-17 0.022430245 0.10723986
0.059999958 0.022335427 0.10760037
1.1274632e-17 0.027503086 0.10754187
0.059999965 0.027072042 0.10772444
9.5597718e-18 0.032445841 0.10737228
0.059999954 0.032456893 0.10745742
7.8403628e-18 0.037401687 0.10757659
0.059999965 0.037162792 0.10729341
6.046687e-18 0.042571615 0.1075968
0.059999961 0.042619653 0.10744301
4.4120879e-18 0.047283024 0.107526
0.059999958 0.047290768 0.10709668
2.4298246e-18 0.05299652 0.10723423
0.059999961 0.052449148 0.10743098
8.9141108e-19 0.057430688 0.10747354
0.059999958 0.057649232 0.10749029
0.0024014185 0.059999973 0.10720905
0.0074392096 0.059999969 0.10759808
0.012396367 0.059999958 0.10733315
0.017693918 0.059999954 0.10746006
0.022727713 0.059999958 0.10766151
0.0274994 0.059999958 0.10769664
0.032508925 0.059999973 0.10763382
0.037654579 0.059999973 0.10717108
0.042598095 0.059999965 0.10740149
0.047212027 0.059999965 0.1072575
0.052333564 0.059999958 0.10757259
0.05742095 0.059999961 0.10754091
0.0013109958 0.001139821 0.11255628
0.0076365815 0 0.11260689
0.012675378 0 0.11216491
0.017380325 0 0.11209956
0.02230382 0 0.11262394
0.027364399 0 0.11278354
0.032768521 0 0.11261122
0.037453242 0 0.11227424
0.042582411 0 0.1124569
0.047612686 0 0.11285522
0.052743644 0 0.11266322
0.057619419 0 0.11203896
0.059999961 0.002572261 0.1123661
1.8067466e-17 0.0079240752 0.11215541
0.059999958 0.0072939508 0.11237577
1.6476123e-17 0.012510809 0.11235947
0.059999969 0.012696755 0.11236037
1.4766188e-17 0.017439373 0.11265703
0.059999965 0.017614819 0.11218494
1.3027508e-17 0.022450773 0.11276121
0.059999961 0.022124365 0.11243147
1.1320203e-17 0.027371738 0.11253804
0.059999961 0.027670773 0.11251584
9.5636844e-18 0.032434553 0.11256942
0.059999961 0.032633435 0.11271657
7.6868769e-18 0.03784408 0.11266183
0.059999961 0.037833039 0.11217359
6.242948e-18 0.04200593 0.11230066
0.059999958 0.04221921 0.11264079
4.3220539e-18 0.047542538 0.11257359
0.059999973 0.047106251 0.11228528
2.6386975e-18 0.052394476 0.11266933
0.059999965 0.05236049 0.11243013
9.2167793e-19 0.057343449 0.11245631
0.059999958 0.057414714 0.11241715
0.0026153678 0.059999961 0.1120343
0.0076336018 0.059999969 0.1123136
0.012518912 0.059999965 0.11252982
0.017691217 0.059999958 0.11226262
0.022197392 0.059999958 0.11213687
0.027520107 0.059999961 0.11244317
0.03239603 0.059999958 0.11247671
0.037442636 0.059999969 0.11284532
0.04278595 0.059999958 0.11217122
0.047848146 0.059999969 0.11215524
0.052438896 0.059999958 0.11257027
0.057425003 0.059999965 0.11238255
0.0010019222 0.0013482206 0.11761863
0.0074273772 0 0.11733145
0.012411739 0 0.11764832
0.017599665 0 0.11756872
0.022586508 0 0.11746725
0.027670942 0 0.11695731
0.032271352 0 0.1174427
0.037361186 0 0.1176498
0.042451512 0 0.11729249
0.04766332 0 0.11718005
0.052431151 0 0.11773684
0.057149045 0 0.11763261
0.059999973 0.0024311247 0.11735622
1.8216583e-17 0.0074942745 0.11748326
0.059999965 0.0077970382 0.11742731
1.6261717e-17 0.013128798 0.11746868
0.059999961 0.012366697 0.11739333
1.4802136e-17 0.017335737 0.11737474
0.059999958 0.017355634 0.11767627
1.3050459e-17 0.022384621 0.11742548
0.059999969 0.022413805 0.11757905
1.1319106e-17 0.027374905 0.1177111
0.059999965 0.027564896 0.11732592
9.6796162e-18 0.032100406 0.11799041
0.059999965 0.032293759 0.11804757
7.8460951e-18 0.037385173 0.11765774
0.059999958 0.03756706 0.11791264
6.0014704e-18 0.042701945 0.11761505
0.059999958 0.042681452 0.11720124
4.4002613e-18 0.047317114 0.11747035
0.059999965 0.047700424 0.11727304
2.611903e-18 0.052471709 0.11751609
0.059999961 0.052604768 0.11745737
8.8343406e-19 0.05745367 0.11779519
0.059999961 0.0576711 0.11719585
0.0025222099 0.059999969 0.11743943
0.0077662771 0.059999958 0.11748913
0.012448468 0.059999969 0.11710011
0.017239228 0.059999965 0.11756225
0.022609847 0.059999961 0.1172877
0.027664874 0.059999961 0.11763645
0.032727048 0.059999965 0.11727666
0.037558634 0.059999958 0.1177196
0.042799257 0.059999958 0.11727049
0.047490127 0.059999958 0.11775149
0.052236252 0.059999958 0.11753593
0.05776085 0.059999984 0.11742665
0.0011486362 0.0011618506 0.12244329
0.0077183009 0 0.12259627
0.012153216 0 0.1219797
0.017563729 0 0.1224089
0.022734083 0 0.12246067
0.027372593 0 0.12311329
0.032330398 0 0.12296762
0.03726745 0 0.12246726
0.042493355 0 0.12240762
0.047838058 0 0.1225357
0.052328657 0 0.12264798
0.057483282 0 0.12230814
0.059999961 0.0026366138 0.12253109
1.8226582e-17 0.0074654496 0.12264422
0.059999958 0.0074898135 0.12254358
1.6454857e-17 0.012572117 0.12241942
0.059999973 0.012614349 0.12265971
1.4690541e-17 0.017657408 0.12275533
0.059999961 0.017434845 0.12229718
1.2914353e-17 0.022776917 0.12265368
0.059999958 0.02233474 0.12252431
1.1287615e-17 0.027465671 0.12225232
0.059999958 0.027461791 0.12234631
9.5452846e-18 0.032487594 0.12249703
0.059999958 0.032518249 0.122442
7.816248e-18 0.037471201 0.12266687
0.059999961 0.037698332 0.12266947
6.058811e-18 0.042536672 0.12260028
0.059999958 0.042400666 0.12268923
4.4154165e-18 0.047273435 0.12253273
0.059999965 0.047184605 0.12230966
2.7407432e-18 0.052100345 0.12278403
0.059999965 0.052602004 0.12278411
9.1963004e-19 0.05734935 0.12223378
0.059999965 0.057648603 0.12216877
0.0024877246 0.059999961 0.1225116
0.0073086224 0.059999961 0.12256593
0.012402296 0.059999961 0.12226914
0.017567707 0.059999958 0.12244775
0.022641392 0.059999961 0.12238295
0.027400337 0.059999958 0.12249175
0.032745078 0.059999958 0.12289992
0.037773713 0.059999969 0.12199047
0.042671766 0.059999961 0.12254837
0.047578223 0.059999965 0.12273107
0.052495286 0.059999958 0.12239429
0.057677448 0.059999958 0.12258807
0.0013573497 0.001032997 0.12737192
0.0077635869 0 0.12763537
0.0124615 0 0.12736605
0.017805589 0 0.12742105
0.022247555 0 0.12734248
0.027460113 0 0.12764415
0.03261875 0 0.12732714
0.037292276 0 0.12749055
0.042594105 0 0.12729689
0.04759651 0 0.12753122
0.052393079 0 0.12762436
0.057492714 0 0.127592
0.059999965 0.0024882688 0.1276529
1.8134797e-17 0.0077300216 0.12727225
0.059999965 0.0076155118 0.12756501
1.6356645e-17 0.012855194 0.12753931
0.059999961 0.012351153 0.12734845
1.4804266e-17 0.017329624 0.12743565
0.059999961 0.017182691 0.12770474
1.3219119e-17 0.02189848 0.12750907
0.059999958 0.022500999 0.12764964
1.1149389e-17 0.027864078 0.12741572
0.059999973 0.027596105 0.12751377
9.5676342e-18 0.032423168 0.12764512
0.059999961 0.032296047 0.12724108
7.7164296e-18 0.037758909 0.12715743
0.059999995 0.037559986 0.12997638
0.059999961 0.037354775 0.12741622
6.0599032e-18 0.042533521 0.12745264
0.059999961 0.042595889 0.12755942
4.1759465e-18 0.047963653 0.12736085
0.059999961 0.04775827 0.1274984
2.4902208e-18 0.052822422 0.12724057
0.059999961 0.052366946 0.12746093
8.1118129e-19 0.057661939 0.12697566
0.059999969 0.057911623 0.12698227
0.002567695 0.059999965 0.12733716
0.0073692696 0.059999965 0.12756601
0.012423054 0.059999965 0.12741978
0.017526425 0.059999954 0.12756564
0.022880126 0.059999965 0.12726854
0.027766909 0.059999958 0.12767279
0.032275781 0.059999965 0.12777817
0.037179843 0.059999961 0.12770735
0.042754781 0.059999969 0.12761119
0.047425754 0.059999965 0.12740688
0.052545682 0.059999961 0.12770784
0.057447534 0.059999969 0.12771447
0.0011661154 0.0014040094 0.13261501
0.0073409085 0 0.13239817
0.012504443 0 0.13244931
0.01739323 0 0.13256826
0.022546163 0 0.13248181
0.027256534 0 0.13241999
0.03259993 0 0.13242687
0.03740523 0 0.13224663
0.042376164 0 0.13242321
0.047221404 0 0.13253812
0.052373961 0 0.13244219
0.057448022 0 0.13252053
0.059999961 0.0027729007 0.13259971
1.8156135e-17 0.0076685138 0.13242084
0.059999976 0.0074404436 0.13230918
1.6510662e-17 0.012411265 0.13229845
0.059999965 0.012479718 0.13249917
1.4709412e-17 0.017603001 0.13258369
0.059999961 0.017480657 0.13241573
1.2985535e-17 0.022571744 0.13279416
0.059999958 0.022412337 0.13251269
1.1262226e-17 0.027538842 0.132321
0.059999965 0.02728802 0.13244531
9.5462516e-18 0.032484815 0.13247256
0.059999954 0.032461606 0.13265008
7.8770342e-18 0.037295997 0.13247326
0.059999995 0.038220748 0.13405472
0.059999958 0.037609898 0.1325344
6.1027897e-18 0.042409912 0.13279322
0.059999969 0.042617291 0.13246942
4.3885716e-18 0.047350805 0.13241589
0.059999965 0.047464576 0.13271232
2.6780502e-18 0.052281048 0.13221736
0.059999973 0.052688766 0.13238256
8.4522215e-19 0.057563808 0.13257287
0.059999969 0.057587139 0.13242504
0.0024301442 0.059999965 0.13256997
0.0077508162 0.059999958 0.13276498
0.012989078 0.059999961 0.13240592
0.017652106 0.059999961 0.13253112
0.022332907 0.059999958 0.13256525
0.027418826 0.059999958 0.13260132
0.032341272 0.059999958 0.13231385
0.038005698 0.059999965 0.13249679
0.042419124 0.059999961 0.13241892
0.047527317 0.059999973 0.13188133
0.052611701 0.059999969 0.13243102
0.057901818 0.059999969 0.13234778
0.0010831306 0.0011575784 0.13760331
0.0074300775 0 0.13784534
0.012354421 0 0.13778545
0.017583612 0 0.13760173
0.023026897 0 0.13768911
0.027964428 0 0.13751054
0.032538541 0 0.13733624
0.037736863 0 0.13770422
0.042436454 0 0.13770533
0.047848262 0 0.13744539
0.052542079 0 0.13721135
0.057763204 0 0.13807042
0.059999965 0.0027326599 0.13759907
1.8130216e-17 0.0077432068 0.13756016
0.059999965 0.0077646277 0.13757867
1.6457387e-17 0.012564819 0.13724527
0.059999969 0.012666584 0.13763063
1.4727155e-17 0.017551873 0.13756694
0.059999965 0.017396443 0.13742623
1.2874118e-17 0.022892874 0.13746227
0.059999965 0.022704305 0.13738622
1.1382502e-17 0.02719217 0.1372761
0.059999969 0.027314043 0.13742869
9.509868e-18 0.032589674 0.13727124
0.059999958 0.032502849 0.13795491
7.8827905e-18 0.037279405 0.13742949
0.059999995 0.037434645 0.13761561
0.059999965 0.037452269 0.13749231
6.0389247e-18 0.042593986 0.13761547
0.059999961 0.042301826 0.13768116
4.2887714e-18 0.047638472 0.13752347
0.059999965 0.047395248 0.13772446
2.6532029e-18 0.052352663 0.13704796
0.059999969 0.052492112 0.1374532
9.1394441e-19 0.057365738 0.13725142
0.059999958 0.057396356 0.13759613
0.0021942458 0.059999965 0.13745281
0.0075107417 0.059999961 0.13758241
0.012672192 0.059999954 0.13731422
0.017827848 0.059999965 0.13737909
0.022766376 0.059999961 0.13749731
0.027517127 0.059999958 0.13735712
0.03246386 0.059999958 0.13753858
0.037524164 0.059999965 0.13731001
0.042514529 0.059999965 0.1375121
0.047536109 0.059999961 0.13729142
0.0527003 0.059999958 0.13728707
0.057191018 0.059999973 0.13747409
0.0015413766 0.0011158854 0.1425298
0.0071863262 0 0.14227135
0.012649079 0 0.14221816
0.017749166 0 0.14241332
0.022575093 0 0.14247231
0.027539559 0 0.14262365
0.032517668 0 0.14272235
0.037863724 0 0.14206304
0.041989826 0 0.14245945
0.047486376 0 0.14248529
0.052556105 0 0.14203857
0.05729229 0 0.1424934
0.059999965 0.0024725315 0.14258488
1.822289e-17 0.0074760942 0.1423852
0.059999969 0.0076067806 0.14271231
1.6563724e-17 0.012258317 0.14256604
0.059999958 0.012751018 0.14250825
1.4917862e-17 0.017002201 0.14273313
0.059999965 0.017546063 0.14241356
1.2975757e-17 0.022599937 0.14249532
0.059999958 0.022700636 0.14258963
1.1195826e-17 0.02773023 0.14232126
0.059999958 0.027525004 0.14248846
9.5647506e-18 0.032431483 0.14258654
0.059999961 0.033003241 0.14272192
7.8269393e-18 0.037440382 0.14265543
0.059999958 0.037233979 0.14282404
6.0171723e-18 0.042656686 0.14228678
0.059999961 0.04277521 0.14230107
4.3847343e-18 0.047361854 0.14275433
0.059999961 0.047726624 0.14228258
2.7055392e-18 0.052201822 0.14241202
0.059999961 0.052630607 0.14259697
8.4834739e-19 0.0575548 0.14263827
0.059999965 0.057566233 0.14251165
0.0026169966 0.059999965 0.14243998
0.007539188 0.059999961 0.1427234
0.012615569 0.059999973 0.14253511
0.017769251 0.059999961 0.14285541
0.022442888 0.059999973 0.14249948
0.027420726 0.059999961 0.14267971
0.03252349 0.059999958 0.14225709
0.03775429 0.059999958 0.14256635
0.042240515 0.059999973 0.14244001
0.047586754 0.059999965 0.14259921
0.052598163 0.059999961 0.14236696
0.057506118 0.059999969 0.1420152
0.002671804 0.0025513389 0.14500006
0.0073021306 0.0023025561 0.145
0.012746699 0.0028196389 0.145
0.017297871 0.0025345841 0.14500003
0.022635259 0.0024041831 0.14500006
0.027666422 0.0029208984 0.14500006
0.032222904 0.0024384123 0.14500003
0.037215631 0.0026432825 0.145
0.04269024 0.0024896555 0.1450001
0.047248933 0.002258494 0.145
0.052561067 0.0024351191 0.14500009
0.057816193 0.002368527 0.14500003
0.0026099032 0.0075881574 0.14500004
0.007607209 0.0077056973 0.145
0.012680455 0.0074335095 0.145
0.017186526 0.0074268868 0.14500004
0.022803988 0.0074487971 0.14500003
0.027501578 0.0073364177 0.145
0.03249732 0.0074890256 0.1450001
0.037754014 0.0073004714 0.14500006
0.042514138 0.0074111097 0.145
0.04736669 0.0073252297 0.145
0.052606773 0.0074392552 0.14500007
0.05768121 0.0071999184 0.14500003
0.0023031489 0.012325747 0.145
0.0074456576 0.012649607 0.1450001
0.012187106 0.012331339 0.14500006
0.017589403 0.012704902 0.14500001
0.02258235 0.012360013 0.14500006
0.027530463 0.012428284 0.14500006
0.032715425 0.012520426 0.145
0.037612744 0.012402946 0.14500007
0.04260122 0.012702486 0.14500006
0.047434732 0.012590539 0.1450001
0.052159462 0.012560515 0.14500004
0.057580125 0.012255049 0.14500013
0.0023619069 0.01770018 0.14500013
0.0078924997 0.017571155 0.14500001
0.012293373 0.017478203 0.1450001
0.017441947 0.017469337 0.14500006
0.022827966 0.017087175 0.14500001
0.02772429 0.017395321 0.14500004
0.032485943 0.017375151 0.145
0.037687916 0.017460661 0.145
0.042793669 0.017732082 0.14500003
0.047381576 0.017220572 0.14500006
0.052307144 0.017467022 0.145
0.057696804 0.017299855 0.1450001
0.0026146329 0.022344816 0.14500007
0.0073805917 0.022475116 0.145
0.012449713 0.022400856 0.14500006
0.017599631 0.022186462 0.14500001
0.022619644 0.022533221 0.14500006
0.02747215 0.022653757 0.145
0.032529917 0.022523256 0.145
0.037409976 0.022331949 0.14500003
0.042411331 0.022445664 0.14500004
0.047589459 0.022359774 0.14500006
0.052486446 0.022503283 0.145
0.057368994 0.022384597 0.14500003
0.0028738985 0.027344724 0.14500003
0.0074748164 0.027369367 0.14500006
0.012332749 0.027471142 0.145
0.01768554 0.027234878 0.14500009
0.022732187 0.02739956 0.14500001
0.027403761 0.027520426 0.14500007
0.033039629 0.027226649 0.145
0.037399217 0.027566573 0.14500012
0.042342767 0.027408188 0.145
0.047803357 0.027422929 0.14500001
0.052514788 0.027123207 0.14500004
0.05735299 0.027158134 0.14500004
0.0023345808 0.03251918 0.14500013
0.0073026274 0.032480191 0.14500004
0.012212791 0.032579519 0.145
0.017236808 0.032393657 0.14500006
0.022927377 0.032487184 0.145
0.027142903 0.032178465 0.14500004
0.032480087 0.03252982 0.14500001
0.037507482 0.032711856 0.14500007
0.042283632 0.03230609 0.14500001
0.047484059 0.032309636 0.14500001
0.05272647 0.032740347 0.145
0.05750823 0.032687724 0.145
0.002436595 0.037864119 0.145
0.0073333159 0.037651416 0.145
0.012412374 0.037127487 0.145
0.017685417 0.037550662 0.145
0.022853209 0.037657551 0.145
0.027446391 0.037586398 0.1450001
0.032711193 0.037222348 0.14500001
0.037622809 0.03784829 0.145
0.042486914 0.037434414 0.14500004
0.047795337 0.03729232 0.14500007
0.052532237 0.037293136 0.14500007
0.057273157 0.037519343 0.14500007
0.0022439307 0.042566031 0.14500004
0.0077680992 0.042777792 0.14500004
0.012771313 0.042522132 0.145
0.017540446 0.042421117 0.14500001
0.022481864 0.042813107 0.14500001
0.027509408 0.042449702 0.14500006
0.032495283 0.042297371 0.145
0.037426468 0.042249106 0.145
0.042738866 0.042529162 0.145
0.04726366 0.042488698 0.14500003
0.052591629 0.04289452 0.14500001
0.05760489 0.042440992 0.145
0.0023377445 0.047416259 0.145
0.0073654735 0.047174979 0.14500006
0.012472264 0.047622427 0.145
0.017440438 0.047423203 0.14500001
0.02235912 0.04734375 0.145
0.02728343 0.047732748 0.14500004
0.032437548 0.047621757 0.145
0.037414376 0.047713507 0.14500001
0.042275447 0.047429752 0.14500007
0.047361221 0.047326569 0.145
0.052533444 0.047857739 0.145
0.057623133 0.04732227 0.14500003
0.0024890676 0.052476175 0.14500007
0.0073546562 0.052428257 0.14500006
0.012408466 0.052570991 0.145
0.017520087 0.052570183 0.145
0.022507703 0.052666355 0.145
0.027344171 0.052266795 0.145
0.032288857 0.052623656 0.145
0.037489787 0.052500561 0.14500004
0.042159628 0.052633703 0.145
0.047422033 0.052233391 0.145
0.05255482 0.052462585 0.14500004
0.057484075 0.052515622 0.14500003
0.0027098861 0.057611842 0.145
0.0076230131 0.057337917 0.14500009
0.01263708 0.057198785 0.145
0.017467715 0.057418965 0.14500003
0.022209413 0.057410758 0.14500006
0.027446091 0.057449818 0.14500004
