# .PCD v0.7 - Point Cloud Data file format
VERSION 0.7
FIELDS x y z
SIZE 4 4 4
TYPE F F F
COUNT 1 1 1
WIDTH 765
HEIGHT 1
VIEWPOINT 0 0 0 1 0 0 0
POINTS 765
DATA ascii
0.0017444156 0.0017113314 0.0015753745
0.0074508595 0.0013408801 0.0011620962
0.012566223 0.0013529725 0.0012598456
0.01743797 0.0012150287 0.0013770707
0.022518538 0.0010517444 0.0013846995
0.027572637 0.001346248 0.0011655032
0.029999981 0.0025618887 0.002496379
0.0011937183 0.0074391244 0.0012471284
0.0073484299 0.0075873234 0
0.012301575 0.0074610268 0
0.01738346 0.0074123582 0
0.022438493 0.0073521598 0
0.027361758 0.0075669391 0
0.029999975 0.0072258846 0.0024504024
0.0013483124 0.012759952 0.0011822955
0.0072784936 0.012365834 0
0.012374054 0.012503996 0
0.017572671 0.012461808 0
0.022334063 0.012657781 0
0.027323697 0.012535011 0
0.029999975 0.012459928 0.002575123
0.0012540241 0.017386118 0.0011892288
0.0074647772 0.01761594 0
0.012553713 0.017398003 0
0.017357204 0.017744763 0
0.022462213 0.017592689 0
0.027730862 0.017563581 0
0.029999977 0.017274844 0.0023793213
0.00127246 0.022759816 0.0012912221
0.0076873354 0.022634622 0
0.012577618 0.022675177 0
0.017344635 0.022643255 0
0.022499871 0.02242418 0
0.027600115 0.02277386 0
0.029999977 0.0222854 0.0023240075
0.0014276798 0.027404021 0.0010767138
0.0075878664 0.027636312 0
0.012620629 0.027717428 0
0.017691424 0.027437381 0
0.022491707 0.027549621 0
0.027548464 0.027519373 0
0.029999977 0.027292334 0.0021813812
0.0025475877 0.029999975 0.0024298378
0.0075484514 0.029999981 0.0023450023
0.012296513 0.029999975 0.0025094794
0.017355908 0.029999975 0.0026634827
0.02237503 0.029999975 0.0024952486
0.027638618 0.029999975 0.0023593402
0.0012271507 0.0012734102 0.0074236812
0.0075003412 0 0.0075595593
0.012638562 0 0.0074409801
0.017519636 0 0.0074278684
0.022407176 0 0.0075619193
0.027477888 0 0.007647349
0.029999975 0.0026276533 0.0075260042
0 0.0074709556 0.0072811362
0.029999975 0.0074854065 0.0071942299
0 0.01239915 0.0075261416
0.029999975 0.012384052 0.0075119361
0 0.017551711 0.0072846762
0.029999975 0.01724281 0.0075826552
0 0.022400716 0.0074924757
0.029999977 0.022503098 0.0073260316
0 0.02761461 0.0073970738
0.029999977 0.027665157 0.0073753116
0.0025039043 0.029999983 0.0075476724
0.007663527 0.029999977 0.0072757285
0.012413769 0.029999984 0.007361311
0.017604854 0.030000009 0.0074628275
0.022485752 0.029999975 0.0074033067
0.027552571 0.029999975 0.0073411856
0.00112322 0.001270473 0.012544439
0.0072795269 0 0.012740407
0.01248485 0 0.012265568
0.017613173 0 0.012354642
0.022388387 0 0.012614968
0.027396316 0 0.01244186
0.029999975 0.0025182678 0.012766106
0 0.0074763787 0.012776781
0.02999999 0.0074055311 0.01229793
0 0.012470902 0.012512353
0.029999975 0.012630776 0.012483319
0 0.017455449 0.01236236
0.029999977 0.017351575 0.012362021
0 0.02232082 0.012284795
0.02999999 0.02231524 0.012402682
0 0.027533269 0.01249979
0.029999977 0.027412092 0.012722254
0.0024649315 0.029999975 0.012648255
0.0072829016 0.029999977 0.012628386
0.01246129 0.029999975 0.012448362
0.017468438 0.029999975 0.012526449
0.02256453 0.029999975 0.012652627
0.027507737 0.029999975 0.012360312
0.0011349331 0.0011747159 0.017564403
0.0074302237 0 0.017620858
0.012303147 0 0.017243629
0.017274337 0 0.017534079
0.022473438 0 0.017714502
0.027514582 0 0.017510075
0.029999975 0.0025998889 0.017488196
0 0.0076330742 0.017701413
0.029999975 0.007633918 0.017207827
0 0.012377405 0.017617576
0.029999975 0.012427663 0.017549248
0 0.017652359 0.01744719
0.029999975 0.017510338 0.017663117
0 0.022256089 0.017635113
0.029999977 0.022840161 0.017372267
0 0.027467128 0.017682085
0.029999977 0.02749392 0.017480791
0.0023688362 0.029999975 0.017452205
0.0076388936 0.029999975 0.017542439
0.012714977 0.029999975 0.017324798
0.017420229 0.029999977 0.017382376
0.022584023 0.029999975 0.017320501
0.027395364 0.029999975 0.017556563
0.0013935122 0.0011429951 0.022447357
0.0074928449 0 0.022488372
0.012479828 0 0.022620074
0.017466282 0 0.022471154
0.022538081 0 0.022569543
0.027404331 0 0.022446455
0.029999975 0.002663855 0.022575056
0 0.0075260969 0.022480473
0.029999975 0.0076595922 0.0225187
0 0.012456187 0.022727126
0.029999975 0.012344586 0.022560952
0 0.017533083 0.022244047
0.029999977 0.017306101 0.022648402
0 0.022490812 0.022515908
0.029999977 0.022509158 0.022737866
0 0.027303597 0.022535747
0.029999986 0.027606489 0.022472523
0.002407233 0.029999975 0.022313889
0.0075007845 0.029999977 0.022619106
0.012455394 0.029999975 0.02256315
0.01750621 0.029999975 0.022505539
0.022401221 0.029999977 0.022549422
0.027447958 0.029999977 0.022289947
0.0012527024 0.0012507942 0.02758259
0.0075496091 0 0.027561769
0.012531656 0 0.027623508
0.017389199 0 0.02741785
0.02251642 0 0.0275045
0.027433192 0 0.027318127
0.029999975 0.0025521659 0.027348161
0 0.0074792113 0.027530279
0.029999975 0.0076794713 0.027418807
0 0.012370335 0.027555047
0.029999997 0.012614338 0.027499588
0 0.017401338 0.027423162
0.029999975 0.017430417 0.027567148
0 0.022395408 0.027532555
0.029999975 0.022627294 0.027521636
0 0.027537432 0.027502405
0.029999997 0.027596068 0.027615415
0.0023244082 0.029999975 0.027550984
0.0071776472 0.029999981 0.027430542
0.012459186 0.029999979 0.02754296
0.017297091 0.029999975 0.027326833
0.022497201 0.029999975 0.027369803
0.027611107 0.029999975 0.027368279
0.0011514777 0.0012419792 0.032528203
0.0076380176 0 0.032449871
0.012470834 0 0.032313257
0.017230248 0 0.032633871
0.022444395 0 0.032513112
0.02761396 0 0.032368977
0.029999975 0.0025897287 0.032622252
0 0.0075690658 0.032535009
0.029999975 0.007324894 0.032429446
0 0.012541093 0.032507882
0.029999975 0.012382925 0.032743797
0 0.017557586 0.032633077
0.029999979 0.01737934 0.032394025
0 0.022371665 0.032627229
0.029999981 0.02232587 0.032625549
0 0.027356949 0.032764196
0.011433211 0.029999997 0.033617634
0.029999975 0.02767404 0.032671366
0.0024137467 0.029999997 0.032593634
0.0077308165 0.02999999 0.032465667
0.012386941 0.029999979 0.032667942
0.017508185 0.029999975 0.032228228
0.022600165 0.029999988 0.032545991
0.027440988 0.029999975 0.032509554
0.0013108108 0.0012145808 0.03743035
0.0072929766 0 0.03747743
0.012574012 0 0.03751336
0.017614773 0 0.037491154
0.02258415 0 0.037365593
0.027605286 0 0.037521746
0.029999981 0.0023260934 0.037494525
0 0.0074878074 0.037735119
0.029999975 0.007559353 0.037470646
0 0.012538383 0.037641134
0.029999975 0.012529281 0.037753429
0 0.017530801 0.037405755
0.029999997 0.016521642 0.039326396
0.029999994 0.017530268 0.037577517
0 0.022566136 0.037557796
0.029999994 0.022651941 0.037442572
0 0.027460914 0.037351649
0.029999979 0.027593382 0.037570938
0.0025024654 0.029999975 0.037573215
0.0075783823 0.029999984 0.03749742
0.01275108 0.029999979 0.037496164
0.017321495 0.029999975 0.03739306
0.022603713 0.029999975 0.037544876
0.027559612 0.029999975 0.037531782
0.0013525574 0.0010972865 0.042492032
0.0073563587 0 0.042500537
0.012602651 0 0.042455129
0.017528538 0 0.042414229
0.022512877 0 0.042610317
0.027462179 0 0.04251587
0.029999975 0.0025142692 0.042739682
0 0.007164638 0.042443614
0.029999979 0.0077162115 0.042316649
0 0.012602909 0.042252876
0.02999999 0.012576373 0.042896107
0 0.017148213 0.042330552
0.029999977 0.017562659 0.042448293
0 0.022418616 0.042674802
0.029999997 0.021501524 0.042165823
0.029999975 0.022506081 0.042640135
0 0.027533691 0.042645041
0.029999975 0.027708506 0.042265642
0.0025158967 0.029999983 0.042564753
0.0073199254 0.029999975 0.042423263
0.012301174 0.029999977 0.042427823
0.017535282 0.029999977 0.042581763
0.022490678 0.029999975 0.042490751
0.027434926 0.029999975 0.042601626
0.0013954971 0.0011275569 0.047512967
0.0074759661 0 0.047533084
0.012218187 0 0.047282591
0.017586675 0 0.04761558
0.022452654 0 0.047560126
0.027170418 0 0.047656301
0.029999988 0.0025289403 0.047424525
0 0.0075556636 0.047432818
0.029999975 0.0074073789 0.047470115
0 0.012466257 0.047497816
0.029999984 0.012259484 0.047313947
0 0.017505523 0.047683198
0.029999986 0.017439302 0.04751863
0 0.022164835 0.047551379
0.029999986 0.022492774 0.047434416
0 0.027399836 0.047732495
0.029999975 0.027633781 0.047337573
0.0024489556 0.029999981 0.047365114
0.0075364048 0.029999975 0.047342576
0.012350845 0.029999975 0.047340456
0.017620092 0.029999975 0.047619469
0.022257201 0.029999975 0.047434859
0.027595948 0.029999977 0.047459088
0.0011612995 0.001309865 0.052588791
0.0075296438 0 0.052495103
0.012350871 0 0.052619092
0.017408019 0 0.05272153
0.022559648 0 0.052464757
0.027560042 0 0.052637119
0.029999975 0.0025731227 0.052540194
0 0.0074824588 0.052194491
0.029999975 0.0074440204 0.052556995
0 0.01238815 0.052598786
0.029999977 0.012473599 0.052574873
0 0.017382778 0.052460186
0.029999977 0.017830681 0.052707914
0 0.022517135 0.052530076
0.029999975 0.022425303 0.052662332
0 0.027439695 0.052678205
0.029999975 0.02752085 0.052553672
0.0024175378 0.029999975 0.052455679
0.0073174685 0.029999975 0.052565493
0.012523976 0.029999977 0.052426267
0.017544126 0.029999975 0.052728254
0.02229715 0.029999975 0.052510917
0.027741211 0.029999975 0.052367393
0.0013075827 0.0012699947 0.057477202
0.0074741864 0 0.057435226
0.012360328 0 0.057335708
0.017384155 0 0.057410046
0.022561993 0 0.057418928
0.02731327 0 0.057600453
0.029999994 0.0026353784 0.057600871
0 0.0076407138 0.057522759
0.029999975 0.0075201737 0.057558853
0 0.012483591 0.057381611
0.029999981 0.012437234 0.057521045
0 0.017377865 0.057479855
0.029999975 0.017396269 0.057740629
0 0.022519456 0.057561293
0.029999975 0.022326106 0.05745532
0 0.027343614 0.057426468
0.029999983 0.027700249 0.057445865
0.0022892812 0.029999975 0.057526235
0.0075428896 0.029999975 0.057561941
0.012563236 0.029999977 0.057630531
0.017468398 0.029999975 0.057394743
0.022591993 0.029999975 0.057322673
0.027572665 0.029999994 0.05765919
0.0011468428 0.0012451016 0.062659591
0.0074465727 0 0.062409386
0.01250003 0 0.062260821
0.017481802 0 0.06260363
0.022416428 0 0.062241897
0.02757206 0 0.062409062
0.029999975 0.0024014378 0.062565342
0 0.0074295341 0.062347379
0.029999984 0.0075833499 0.062663004
0 0.012378877 0.062354513
0.029999975 0.012394465 0.062393203
0 0.017536962 0.062362805
0.029999975 0.017578904 0.06266135
0 0.022598365 0.062288094
0.029999975 0.022439381 0.062488932
0 0.0276717 0.062542453
0.013301727 0.029999997 0.064008847
0.029999975 0.027543573 0.062467046
0.0023882375 0.029999975 0.062646657
0.0073856474 0.029999975 0.062503368
0.012756673 0.029999984 0.062542774
0.017361337 0.029999994 0.062761083
0.022726435 0.029999975 0.062759608
0.027449401 0.029999975 0.062617183
0.0014074206 0.0012306682 0.067488745
0.0075492198 0 0.067591727
0.012304701 0 0.067585737
0.017678939 0 0.067366652
0.022406247 0 0.06778267
0.027593777 0 0.06760598
0.029999975 0.0027479385 0.067536697
0 0.0075079054 0.067542717
0.02999999 0.0075188251 0.067665562
0 0.012573898 0.067643814
0.029999977 0.012699135 0.067622587
0 0.017371377 0.067342922
0.029999975 0.01754869 0.067672849
0 0.022387072 0.067747228
0.029999975 0.022399141 0.067619234
0 0.02764973 0.067571908
0.029999975 0.027278062 0.067487866
0.0025645536 0.029999975 0.06743703
0.0074414271 0.029999975 0.067583099
0.012555338 0.029999977 0.067323811
0.017559187 0.029999988 0.067143746
0.022509962 0.029999975 0.067511186
0.027159384 0.029999975 0.067453429
0.0012333265 0.0011233898 0.072420612
0.0075322385 0 0.07275492
0.012435019 0 0.072456107
0.017488254 0 0.072481111
0.022375936 0 0.072566524
0.027624557 0 0.07252612
0.029999975 0.0025696554 0.072515748
0 0.0075368281 0.072687633
0.029999975 0.0074712434 0.072367147
0 0.012755554 0.072370701
0.029999975 0.012421996 0.072381325
0 0.017566338 0.072560593
0.029999981 0.017695526 0.07267303
0 0.022531873 0.072360352
0.029999983 0.022380913 0.072480023
0 0.027467342 0.072351277
0.029999975 0.027528841 0.072369501
0.0026887821 0.029999975 0.072340004
0.0073050996 0.029999975 0.0724966
0.012523061 0.029999975 0.072550103
0.017891152 0.029999975 0.072315723
0.022401158 0.029999977 0.072452128
0.027385266 0.029999975 0.072629407
0.0011454099 0.0012694502 0.077520989
0.0074822842 0 0.077287346
0.012552096 0 0.077505395
0.01759585 0 0.077583082
0.022205297 0 0.077597968
0.027761679 0 0.077452898
0.029999977 0.0022892358 0.077509724
0 0.0073609012 0.077542782
0.029999977 0.0074269753 0.077514417
0 0.012470923 0.077538386
0.029999977 0.012669069 0.077274524
0 0.017434677 0.077425696
0.029999975 0.017454259 0.077462703
0 0.022562468 0.077486016
0.029999977 0.022840237 0.077533104
0 0.027621154 0.077461615
0.029999975 0.027602768 0.077455796
0.0026257369 0.029999975 0.077379473
0.0074915113 0.029999975 0.077696078
0.012506095 0.029999975 0.077397801
0.017496524 0.029999975 0.077393092
0.02243006 0.029999975 0.077454127
0.027480727 0.029999977 0.077532999
0.00118436 0.0013331643 0.082515344
0.0075396262 0 0.082472123
0.012526729 0 0.082571231
0.017614039 0 0.082483836
0.022396209 0 0.082639389
0.027611602 0 0.082356237
0.029999992 0.0025863275 0.082388408
0 0.0072420314 0.082467735
0.029999979 0.0074395197 0.082413912
0 0.012395805 0.08251591
0.029999975 0.012559898 0.082380995
0 0.017595442 0.082519606
0.029999975 0.017412512 0.082547829
0 0.022273891 0.082312971
0.029999975 0.022737077 0.082568496
0 0.027453329 0.082434006
0.029999975 0.027719392 0.082609773
0.0027254473 0.029999975 0.082585678
0.0073574712 0.029999975 0.082405418
0.012446039 0.029999975 0.082408741
0.017679347 0.029999977 0.082403935
0.022561688 0.029999977 0.082168691
0.027705127 0.029999975 0.082550026
0.0011971676 0.0012971861 0.087545902
0.0074725146 0 0.087649778
0.012374625 0 0.087605894
0.017343692 0 0.0875521
0.022442013 0 0.087464236
0.027702132 0 0.087384254
0.029999975 0.0025560821 0.087580599
0 0.0075463564 0.087561153
0.029999979 0.0075419163 0.087425478
0 0.012553418 0.087439761
0.029999983 0.012516509 0.087318435
0 0.01737042 0.087580144
0.029999984 0.017424939 0.08765237
0 0.022631209 0.087442748
0.029999988 0.022648258 0.087493643
0 0.027329976 0.087466337
0.029999975 0.027432607 0.087605335
0.0026915998 0.029999977 0.087469332
0.0075228233 0.029999983 0.087581091
0.012351961 0.029999975 0.087261632
0.017569808 0.029999975 0.087737687
0.022261558 0.029999975 0.08758036
0.027492346 0.029999975 0.087622888
0.0011167362 0.0014788058 0.092467442
0.0075813085 0 0.092424348
0.012550887 0 0.092540257
0.017675333 0 0.092693485
0.022381524 0 0.092507601
0.027554737 0 0.092576519
0.029999977 0.0024563049 0.0925887
0 0.0073117376 0.092439599
0.029999983 0.0072743115 0.092841104
0 0.01250246 0.092614166
0.029999979 0.012656334 0.092393659
0 0.017635936 0.092516743
0.029999975 0.017515611 0.09251456
0 0.022778383 0.092356272
0.029999975 0.022294352 0.092321254
0 0.027658518 0.092366688
0.029999975 0.027600525 0.092431903
0.0025122857 0.029999975 0.092370301
0.0074415701 0.029999975 0.092505351
0.012334504 0.029999975 0.092533879
0.017439488 0.029999984 0.092237301
0.022587413 0.029999977 0.092570193
0.027573669 0.029999975 0.092758968
0.0014207837 0.0011099686 0.097484604
0.0073664817 0 0.097736083
0.012420552 0 0.097534269
0.017472165 0 0.09733808
0.022559131 0 0.097459771
0.027512878 0 0.09763252
0.029999979 0.0025695909 0.097373061
0 0.0073425667 0.097287647
0.029999977 0.0075478796 0.09760087
0 0.012513695 0.097705513
0.029999977 0.012453209 0.097498111
0 0.017320227 0.097606391
0.029999975 0.017549118 0.097522318
0 0.022586752 0.097453356
0.029999996 0.022734655 0.097321518
0 0.027567632 0.097530909
0.029999977 0.027578562 0.097703047
0.0023586268 0.029999975 0.097355112
0.0073334025 0.029999999 0.097523756
0.012629314 0.029999977 0.097659066
0.017675759 0.02999999 0.097465694
0.02244146 0.029999977 0.09740606
0.027586736 0.029999977 0.097565375
0.0012479059 0.0012554203 0.10237742
0.0073533668 0 0.10246132
0.012564161 0 0.10231812
0.017762108 0 0.10231778
0.022411358 0 0.10264386
0.027491175 0 0.10220928
0.029999977 0.0024963878 0.10259712
0 0.007326154 0.10258293
0.029999979 0.0076020821 0.10260764
0 0.012580114 0.10269112
0.029999992 0.012531647 0.10256413
0 0.017461887 0.10228068
0.029999975 0.0175453 0.10238896
0 0.02266741 0.10254025
0.029999975 0.022416549 0.10256489
0 0.027889838 0.10227653
0.029999984 0.027807463 0.10236541
0.002287019 0.029999977 0.10261752
0.0075191814 0.029999975 0.10239549
0.012717972 0.029999975 0.10237176
0.017565878 0.029999977 0.1025198
0.022709994 0.029999979 0.10258858
0.027483717 0.029999975 0.10233149
0.0011495153 0.0012263536 0.10728437
0.0074580591 0 0.10730545
0.012755624 0 0.10748108
0.01764366 0 0.10715389
0.022527214 0 0.107473
0.027438695 0 0.10761465
0.029999992 0.0025332158 0.10759383
0 0.0074167922 0.10758759
0.029999979 0.0074241571 0.10731196
0 0.012429057 0.10738565
0.029999975 0.012523453 0.10742112
0 0.017630056 0.10732863
0.029999977 0.017576907 0.1074997
0 0.022449246 0.10763233
0.029999975 0.022554079 0.10765512
0 0.02774157 0.10750318
0.029999979 0.027335972 0.1073438
0.0023120993 0.029999981 0.10745786
0.0073280465 0.029999981 0.10762312
0.012555102 0.029999975 0.1076404
0.017769007 0.029999977 0.10742826
0.022388209 0.029999975 0.10748063
0.027638953 0.029999975 0.10763022
0.001042988 0.0014611135 0.11249249
0.0074839205 0 0.11262581
0.012520425 0 0.11234182
0.017711988 0 0.11268178
0.022526953 0 0.11250155
0.027515009 0 0.1126544
0.029999981 0.0026700553 0.11224046
0 0.0076286234 0.11245149
0.029999977 0.0077599399 0.11243553
0 0.012657586 0.11232466
0.029999979 0.012412242 0.11249743
0 0.017570995 0.11233315
0.029999975 0.017229348 0.11233784
0 0.022406224 0.11257949
0.029999975 0.022289399 0.11259478
0 0.027654869 0.11243651
0.029999994 0.027336899 0.11224568
0.0026235147 0.029999977 0.11265931
0.0078145908 0.029999977 0.11250456
0.01276539 0.029999975 0.11235122
0.017594779 0.029999977 0.11258198
0.022698315 0.029999975 0.11257274
0.027606836 0.029999981 0.11259409
0.0013506407 0.0012748458 0.11751485
0.007371386 0 0.11752583
0.012551477 0 0.11762623
0.017522639 0 0.11765262
0.022456868 0 0.11752458
0.027394339 0 0.11757311
0.029999983 0.002358682 0.11744241
0 0.0076640104 0.11764107
0.029999977 0.0073595815 0.11730353
0 0.012303599 0.11750942
0.029999975 0.012506827 0.11764084
0 0.017532352 0.11745875
0.029999975 0.017646696 0.1174493
0 0.022559166 0.11745933
0.029999984 0.022309421 0.1175295
0 0.027115772 0.11766429
0.029999975 0.027411578 0.1177129
0.0027632101 0.029999979 0.1175781
0.0075143231 0.029999981 0.11742535
0.012190805 0.029999975 0.11748391
0.017515002 0.029999984 0.11760333
0.022262786 0.029999975 0.11762514
0.027535779 0.029999975 0.11759464
0.0012283911 0.0013230145 0.12242747
0.0076075974 0 0.12263311
0.012424889 0 0.12233784
0.01751342 0 0.1223906
0.02263353 0 0.12244765
0.027618065 0 0.12257108
0.029999977 0.0025194285 0.12249038
0 0.0075951396 0.12254995
0.029999999 0.0073978575 0.12245373
0 0.012439445 0.12272623
0.029999977 0.01245335 0.12230028
0 0.017343868 0.12254067
0.029999984 0.017573215 0.12252829
0 0.022470513 0.12235433
0.029999977 0.022290083 0.12220585
0 0.027509004 0.12279587
0.029999977 0.027703775 0.12260754
0.0024506012 0.02999999 0.12243941
0.007650984 0.029999975 0.12253018
0.01242286 0.029999975 0.1223316
0.017710084 0.029999975 0.12266644
0.022591442 0.029999977 0.12256206
0.027195305 0.029999977 0.12243293
0.0012752815 0.001182616 0.12763804
0.0076362318 0 0.12729934
0.012575768 0 0.12757124
0.017509131 0 0.12747692
0.022484608 0 0.12761454
0.027376039 0 0.12745203
0.029999975 0.0024473239 0.12763691
0 0.0077186758 0.1275056
0.029999979 0.0074826162 0.12760821
0 0.012487365 0.12758934
0.029999975 0.012452728 0.12754206
0 0.017472744 0.12766577
0.029999984 0.017690435 0.1274806
0 0.022580313 0.12765025
0.02999999 0.022473071 0.12738925
0 0.027439607 0.12747894
0.029999977 0.027342211 0.12757
0.0026990257 0.029999979 0.127694
0.0075746938 0.029999977 0.1275313
0.012416326 0.029999979 0.12760022
0.017528625 0.02999999 0.12736052
0.022327827 0.029999977 0.12758432
0.027481396 0.029999975 0.12748305
0.0013754633 0.0012317976 0.1324788
0.0075763818 0 0.13253793
0.012573506 0 0.13240555
0.017445724 0 0.13238159
0.022616716 0 0.13271135
0.027244117 0 0.13247493
0.029999979 0.0024581803 0.13280246
0 0.0073895766 0.13234794
0.029999977 0.0075060972 0.13254136
0 0.012419234 0.13236709
0.029999977 0.012352799 0.13272771
0 0.017541444 0.13247493
0.029999997 0.018779993 0.13445832
0.029999975 0.017553607 0.13244174
0 0.022544993 0.13229035
0.029999977 0.022405209 0.13240787
0 0.027797682 0.1323106
0.0070857634 0.029999997 0.13282965
0.029999997 0.027570464 0.13244207
0.0024967822 0.029999977 0.13247229
0.0074879299 0.029999977 0.13239348
0.012524418 0.029999977 0.13243173
0.017586088 0.029999975 0.13277155
0.022456381 0.029999977 0.13247015
0.027453497 0.029999977 0.13247176
0.0010775266 0.0013459413 0.1375601
0.0074944799 0 0.13759969
0.012373625 0 0.13755047
0.017345754 0 0.13734385
0.022634288 0 0.13749094
0.027570644 0 0.13750812
0.029999979 0.0025354757 0.13744068
0 0.0073366002 0.13736433
0.029999977 0.0072949915 0.13736361
0 0.012429828 0.13744333
0.029999975 0.012606415 0.13755699
0 0.017260903 0.13730976
0.029999997 0.019110374 0.1386773
0.030000003 0.017282564 0.13741073
0 0.022438066 0.13762249
0.029999981 0.022692062 0.13754851
0 0.027392237 0.13746315
0.029999975 0.027734818 0.13755165
0.002354379 0.029999979 0.13759042
0.0074534058 0.029999979 0.13746238
0.012334573 0.029999975 0.13762811
0.017514611 0.029999977 0.13730918
0.022341879 0.029999979 0.13732564
0.02736569 0.029999977 0.13741116
0.0012078191 0.0012600754 0.14264216
0.0075245271 0 0.14273384
0.01284206 0 0.14258759
0.017665934 0 0.14242634
0.022625994 0 0.14257944
0.027433496 0 0.14263262
0.029999977 0.0026864295 0.14246246
0 0.0074446131 0.14236203
0.029999977 0.0072903377 0.14235425
0 0.012329792 0.14241728
0.029999979 0.012439374 0.14234069
0 0.017501852 0.14223477
0.029999997 0.018717322 0.14236097
0.029999988 0.017355189 0.14265996
0 0.022289094 0.1425496
0.029999975 0.022438161 0.14245124
0 0.027329201 0.14219283
0.029999977 0.027448319 0.1425532
0.0025623098 0.029999977 0.1425153
0.0076032644 0.029999977 0.1425115
0.01252121 0.029999975 0.1426326
0.017631505 0.029999988 0.14264597
0.022525178 0.03000002 0.14235443
0.027431229 0.029999994 0.14226569
0.0013226254 0.0013259985 0.1474985
0.0077178488 0 0.14751315
0.01233055 0 0.14770964
0.017608626 0 0.14736724
0.022347691 0 0.14765435
0.027466165 0 0.14724742
0.029999977 0.0024744465 0.14768885
0 0.0073305387 0.14764193
0.029999977 0.0074869986 0.14756906
0 0.01270084 0.14743684
0.029999975 0.01264432 0.14731723
0 0.017268028 0.14758199
0.018123325 0.019611759 0.14999999
0.028756468 0.01898971 0.14999999
0.029999977 0.017483041 0.14753346
0 0.022573894 0.14760841
0.019034116 0.021909991 0.14999999
0.023349674 0.024492191 0.14999999
0.027181096 0.022636285 0.14999999
0.029999975 0.022460101 0.14739062
0 0.02773511 0.14754568
0.027989296 0.028333373 0.14999999
0.029999984 0.027486155 0.14754243
0.0025350084 0.029999977 0.14743437
0.0076020607 0.029999977 0.14727855
0.012341571 0.029999977 0.14774098
0.017621526 0.029999975 0.14752667
0.022488289 0.029999975 0.14753814
0.027417567 0.029999977 0.14738539
0.0025229726 0.0024720598 0.14999983
0.0074985153 0.0025897967 0.14999984
0.012641283 0.0025920181 0.14999981
0.017531259 0.0026508912 0.14999984
0.022398978 0.0024719574 0.1499998
0.027679753 0.0025854323 0.14999984
0.0027833728 0.0073172753 0.14999981
0.0074912095 0.0076578748 0.14999983
0.012498615 0.0074131414 0.14999983
0.017420698 0.00756871 0.14999981
0.022618849 0.0072679487 0.14999984
0.02756373 0.0073716221 0.14999981
0.0024972369 0.012740226 0.14999983
0.0075500598 0.012392044 0.1499998
0.012346023 0.01249261 0.1499998
0.017551783 0.012516417 0.1499998
0.02246009 0.012551819 0.14999983
0.027397223 0.012666526 0.14999983
0.002481672 0.017494254 0.14999983
0.0075857891 0.017623991 0.14999981
0.01242794 0.017396215 0.14999983
0.017678628 0.017414153 0.14999981
0.022396309 0.017654937 0.14999981
0.027615426 0.017532071 0.14999981
0.0024801516 0.022676185 0.14999983
0.0074865622 0.022566855 0.14999981
0.012528144 0.022704046 0.14999987
0.017531227 0.022379629 0.14999981
0.022625227 0.022246091 0.14999984
0.027125482 0.022309573 0.14999983
0.0024450046 0.027556082 0.14999984
0.0073049213 0.027582718 0.14999983
0.012718646 0.027448894 0.14999981
0.017432427 0.027396871 0.1499998
0.022480335 0.027812673 0.14999983
0.027514104 0.02774947 0.14999983
