# .PCD v0.7 - Point Cloud Data file format
VERSION 0.7
FIELDS x y z
SIZE 4 4 4
TYPE F F F
COUNT 1 1 1
WIDTH 772
HEIGHT 1
VIEWPOINT 0 0 0 1 0 0 0
POINTS 772
DATA ascii
0.0016251907 0.0016946334 0.0017005615
0.007567917 0.001324325 0.0010891268
0.012487203 0.0013906287 0.0011356147
0.017629668 0.0010381789 0.001322688
0.022612132 0.0012517545 0.001304148
0.027480299 0.0012998278 0.0013063622
0.032589756 0.0013242924 0.0011273462
0.037596285 0.0013759086 0.0011611312
0.042475011 0.0012472544 0.0014076078
0.047448568 0.0010989042 0.001351828
0.050000094 0.0026443468 0.0025561245
0.0012581523 0.0076036649 0.0013502783
0.007638514 0.0074205971 0
0.012342578 0.0075448654 0
0.017596733 0.0074678189 0
0.022573872 0.0074732779 0
0.02740025 0.0073964889 0
0.032516845 0.0076304926 0
0.037447937 0.0074474108 0
0.042554077 0.0075434009 0
0.047401845 0.0075371442 0
0.050000094 0.0076321615 0.002569702
0.0011974308 0.012504402 0.001366885
0.0075326418 0.012440494 0
0.012482658 0.012408156 0
0.017539578 0.012413282 0
0.022406252 0.012561973 0
0.027502416 0.012505454 0
0.032500438 0.012526502 0
0.037263747 0.012685669 0
0.042349167 0.012463438 0
0.047586195 0.012517736 0
0.05000009 0.012537882 0.0025226423
0.0011148638 0.017491572 0.0013395858
0.0074547287 0.01752031 0
0.012296133 0.01740326 0
0.017578274 0.017575515 0
0.02233688 0.017635379 0
0.027285997 0.01746624 0
0.032472715 0.017428271 0
0.037408844 0.017477646 0
0.042538438 0.01751321 0
0.047783948 0.017432563 0.00020768653
0.050000057 0.017727518 0.0023545474
0.0011086911 0.022489229 0.0013542026
0.0075036259 0.022418918 0
0.012620474 0.022285579 0
0.017598366 0.022526596 0
0.022428473 0.022346565 0
0.027527742 0.022522589 0
0.032702219 0.022476632 0
0.037522588 0.022440413 0
0.042598128 0.022475276 0
0.047373764 0.02230121 0
0.050000072 0.022392835 0.0023788367
0.0014397749 0.027611746 0.0011314588
0.007519261 0.027463462 0
0.012365695 0.027622053 0
0.017513707 0.027545419 0
0.022361876 0.027454903 0
0.027758988 0.027584866 0
0.032416876 0.027346149 0
0.037581224 0.027502595 0
0.042471346 0.027536776 0
0.047851246 0.027747577 0.00030828055
0.050000049 0.027723327 0.0026391989
0.0010195746 0.032314189 0.0013522309
0.0077048913 0.032476056 0
0.012455429 0.032326847 0
0.017377013 0.032435 0
0.022332484 0.032349955 0
0.027537787 0.032368176 0
0.032354511 0.032475952 0
0.037372094 0.03251389 0
0.04240419 0.032457639 0
0.047923781 0.032600395 0.00049375987
0.050000057 0.032579381 0.00253681
0.0012361784 0.037542503 0.0014188843
0.0074572382 0.037685897 0
0.012537479 0.037334815 0
0.017570436 0.037380617 0
0.022421965 0.037473161 0
0.027331168 0.037461296 0
0.032374717 0.037447453 0
0.037605178 0.03744898 0
0.042462617 0.037648171 0
0.047604769 0.037609287 0.00017290279
0.050000075 0.037465468 0.0023667587
0.0012650713 0.042660568 0.0011859288
0.0074958024 0.042499691 0
0.012543019 0.042667162 0
0.017723272 0.042390276 0
0.022382315 0.042449541 0
0.027628139 0.042705338 0
0.032376993 0.04263125 0
0.037357196 0.042345159 0
0.042465907 0.042541642 0
0.047777101 0.042365417 0.00018580587
0.050000075 0.042524897 0.0025048652
0.001199564 0.047308311 0.0013738929
0.0075363335 0.047718793 0.00019761552
0.012659349 0.047654606 0.00023922852
0.017551623 0.047741488 0.0003008674
0.022601683 0.047900759 0.00031675815
0.027331326 0.047434092 0
0.032579631 0.04764745 0.00026015888
0.037392098 0.047595281 0
0.042742006 0.047485169 0
0.047699209 0.047515959 0.00010959994
0.050000083 0.047544926 0.0025363867
0.0026429312 0.050000075 0.0026405207
0.0076436969 0.050000057 0.0025072265
0.012660608 0.050000068 0.0025414701
0.017276049 0.050000045 0.0024298222
0.022612127 0.050000057 0.0024059981
0.027464502 0.050000075 0.0025328791
0.032349057 0.050000068 0.0025737318
0.03760089 0.050000083 0.0026361356
0.042541839 0.05000009 0.0024792526
0.047406089 0.050000079 0.0024869721
0.0012225244 0.0013693541 0.0075107543
0.0075167981 0 0.0074219084
0.012486605 0 0.0074502616
0.017532997 0 0.0074665053
0.022738161 0 0.0075184247
0.0275758 0 0.0073996554
0.032451462 0 0.0073358999
0.037506822 0 0.0075956336
0.042751398 0 0.00746838
0.047526974 0 0.0075393119
0.050000068 0.0026899877 0.0076011675
0 0.0073549692 0.0076281009
0.05000009 0.007418307 0.0074753808
0 0.012307376 0.007486342
0.050000086 0.012629582 0.0074786311
0 0.017541928 0.0075235944
0.050000004 0.017203314 0.0077286582
0.050000083 0.017494632 0.0077087432
0 0.022673788 0.0076387781
0.050000004 0.022974221 0.0089973612
0.050000072 0.022374257 0.0074505815
0 0.027493063 0.0076615899
0.049999986 0.027503558 0.0072613382
0.050000053 0.02734825 0.0073819221
0 0.032631103 0.0075703119
0.049999982 0.032696694 0.0071150549
0.050000034 0.032563686 0.0074835871
0 0.037538398 0.0075079212
0.050000004 0.036472891 0.0076404922
0.050000053 0.037498984 0.0076011536
0 0.042471346 0.0073227384
0.049999997 0.04165554 0.0068222536
0.050000072 0.04256646 0.0076244045
0 0.047562066 0.0076704519
0.00764621 0.049999997 0.0062982836
0.012582705 0.050000004 0.0070216446
0.017510545 0.049999978 0.0075885826
0.022890085 0.049999986 0.0074788784
0.02681501 0.050000004 0.0090531772
0.032605007 0.049999997 0.0071564591
0.050000083 0.047485441 0.0072954991
0.0023844508 0.050000098 0.0076373406
0.0073874854 0.050000094 0.0076384996
0.01227958 0.050000072 0.0075352793
0.017596984 0.050000019 0.0075078323
0.022631519 0.050000068 0.0076353331
0.027440539 0.050000083 0.0074239746
0.032605894 0.050000072 0.0074743032
0.037467211 0.050000094 0.0075076688
0.042568333 0.050000064 0.0073354454
0.047376145 0.050000068 0.0076122778
0.0011984373 0.0011830974 0.012529288
0.0074260063 0 0.012398673
0.012506866 0 0.012699716
0.017630091 0 0.012581281
0.022218719 0 0.012691565
0.027519178 0 0.01234154
0.032566551 0 0.012521456
0.037371788 0 0.012470894
0.042377234 0 0.012780092
0.047497664 4.8770544e-05 0.012447634
0.050000086 0.0025296314 0.012345085
0 0.007725555 0.01243207
0.050000001 0.0081792185 0.013824117
0.050000083 0.0073501528 0.012502814
0 0.012572824 0.012449711
0.050000001 0.011830796 0.013181639
0.050000064 0.012397772 0.012581797
0 0.017471611 0.012548356
0.050000004 0.017064935 0.012240347
0.050000068 0.017349798 0.012338842
0 0.022627136 0.012677573
0.049999993 0.022887422 0.012373812
0.050000075 0.02230737 0.012402113
0 0.027661689 0.01238787
0.049999975 0.027243838 0.012654624
0.050000027 0.027508672 0.012389079
0 0.032493509 0.012522607
0.049999982 0.032393783 0.012637044
0.050000057 0.032579981 0.012611884
0 0.037412189 0.012464152
0.050000001 0.036673468 0.011921749
0.05000009 0.037586108 0.012687536
0 0.042667877 0.012631225
0.050000086 0.042341389 0.012545997
0 0.047392584 0.012402317
0.01264559 0.049999997 0.011424451
0.018189017 0.049999993 0.012244035
0.022636637 0.049999978 0.012857527
0.027125577 0.050000001 0.013834797
0.032669161 0.049999982 0.012280145
0.036706805 0.050000001 0.012556779
0.041755743 0.050000004 0.01399198
0.045898024 0.049999997 0.014500101
0.050000075 0.047558285 0.012347528
0.002421963 0.05000009 0.012495692
0.0074656229 0.050000057 0.012504881
0.012478935 0.050000094 0.012611546
0.017417641 0.050000064 0.012630112
0.022518361 0.050000045 0.012559623
0.027465235 0.050000079 0.012576028
0.032428078 0.050000064 0.01277905
0.037372746 0.050000068 0.012297957
0.042465966 0.050000079 0.012191296
0.047441021 0.050000079 0.012523879
0.0014087011 0.0011038039 0.017679188
0.0077016968 0 0.017486982
0.01257345 0 0.017437896
0.017396059 0 0.017633947
0.022608537 0 0.017358774
0.02749607 0 0.017493138
0.032490231 0 0.017311802
0.037619743 0 0.017504411
0.042554684 0 0.017402034
0.047749296 0.00021947386 0.017231865
0.050000053 0.0026340177 0.017657597
0 0.0074131163 0.017722879
0.049999997 0.0056493999 0.015496131
0.050000083 0.007408584 0.017652117
0 0.012584711 0.017625201
0.049999997 0.013724661 0.018930079
0.050000064 0.01251555 0.017522845
0 0.017377118 0.017617615
0.049999975 0.017410196 0.017962897
0.050000053 0.01732154 0.017280601
0 0.022564057 0.017511277
0.04999999 0.022457043 0.017303849
0.050000053 0.022670837 0.017522445
0 0.02757143 0.017420568
0.049999997 0.027731767 0.017424852
0.050000068 0.027518123 0.017417625
0 0.032544263 0.017329864
0.049999978 0.032788873 0.017446518
0.05000006 0.032454003 0.017676847
0 0.037504554 0.01729678
0.049999997 0.035250671 0.018957848
0.050000075 0.037496444 0.017454226
0 0.042518899 0.01761278
0.050000079 0.042468179 0.017556837
0.00014235487 0.047703963 0.017510673
0.014968551 0.049999997 0.01767293
0.016842376 0.049999982 0.01759004
0.02235282 0.049999982 0.017339114
0.027858458 0.049999982 0.017347844
0.032742392 0.049999982 0.017862171
0.036607388 0.049999997 0.019164626
0.043765776 0.049999997 0.015583488
0.048058625 0.049554296 0.016897511
0.05000006 0.047390662 0.017222119
0.0024891554 0.050000086 0.017437346
0.0075618722 0.050000075 0.017432202
0.012425413 0.050000072 0.01735436
0.017373092 0.050000072 0.017492376
0.022674521 0.050000042 0.017320165
0.027604887 0.05000006 0.017455535
0.032375339 0.050000068 0.017379662
0.037484564 0.050000068 0.017413516
0.042286281 0.050000094 0.017534904
0.047375739 0.050000075 0.017622542
0.0013333199 0.0010873198 0.022583326
0.0074288445 0 0.022329228
0.012256679 0 0.022314565
0.017436577 0 0.022646954
0.022299368 0 0.022495354
0.027459681 0 0.022434164
0.032579102 0 0.022354662
0.037550513 0 0.022878351
0.042517584 0 0.022574965
0.047614232 3.6888716e-05 0.022542207
0.050000083 0.0022011283 0.022513492
0 0.0075322958 0.022477714
0.049999997 0.0073368456 0.023326566
0.050000053 0.0073218178 0.022572324
0 0.012285221 0.022559851
0.049999986 0.012737343 0.022804452
0.050000064 0.012488939 0.022501616
0 0.017429318 0.02254395
0.049999993 0.017134249 0.022013357
0.050000057 0.017481744 0.022648063
0 0.022603523 0.022472912
0.050000004 0.022618748 0.022232693
0.050000072 0.022499418 0.022505773
0 0.027472558 0.022472935
0.050000004 0.02684099 0.021691199
0.050000068 0.027681231 0.022529654
0 0.03239806 0.022467278
0.049999997 0.033993278 0.021589799
0.050000083 0.032578796 0.022531377
0 0.037741378 0.022437595
0.050000004 0.036431041 0.023134012
0.050000079 0.037602104 0.02261438
0 0.042458899 0.022627994
0.050000001 0.043575514 0.023382327
0.050000083 0.042608052 0.022424219
5.127837e-05 0.047523402 0.022361444
0.0067571779 0.050000001 0.023754591
0.013731482 0.050000004 0.022594769
0.015977981 0.050000004 0.021919729
0.023433521 0.050000004 0.021894705
0.02657412 0.050000001 0.022044251
0.032908309 0.049999982 0.021966431
0.037621584 0.050000001 0.022838766
0.04284643 0.050000001 0.023340767
0.047996368 0.04844702 0.023028284
0.050000075 0.047634359 0.022352433
0.0024919328 0.050000075 0.022535153
0.0073525095 0.050000068 0.022452535
0.012365434 0.050000083 0.022584001
0.017727796 0.050000094 0.022669483
0.02219297 0.050000072 0.022637889
0.027521653 0.050000075 0.022621771
0.032437079 0.050000068 0.022592073
0.037247173 0.050000068 0.022486825
0.042356886 0.050000079 0.022381704
0.04742638 0.050000072 0.022356501
0.0011563897 0.001482298 0.027470838
0.0074792076 0 0.027450589
0.01237531 0 0.027477641
0.017450485 0 0.027553611
0.022602148 0 0.027301369
0.027689829 0 0.027534716
0.032367203 0 0.027658042
0.037491951 0 0.027434899
0.042368446 0 0.027400076
0.047967777 0.00041148948 0.027337447
0.050000064 0.002565389 0.027411945
0 0.0074489284 0.027380073
0.04999999 0.0072569214 0.027078852
0.050000064 0.0074825096 0.027429778
0 0.012163483 0.027348239
0.050000001 0.012639019 0.027697796
0.050000057 0.012577928 0.02748403
0 0.017387897 0.027530907
0.04999999 0.01770146 0.027542597
0.050000049 0.017710488 0.027599931
0 0.022762485 0.027374934
0.050000001 0.023300385 0.027859414
0.050000042 0.022495056 0.027605163
0 0.027630048 0.027654184
0.050000004 0.0269024 0.028570235
0.050000079 0.02757711 0.027756635
0 0.03240962 0.027534524
0.050000086 0.032498386 0.027399527
0 0.037539758 0.02758674
0.049999997 0.037859756 0.027675658
0.050000068 0.037295766 0.027393898
0 0.042451184 0.027507987
0.050000001 0.041161764 0.026929662
0.050000083 0.042700134 0.027600599
0.0001524078 0.047557354 0.027643701
0.0089595187 0.050000004 0.02659541
0.011946116 0.04999999 0.027584994
0.023010548 0.050000004 0.028624753
0.027567388 0.049999993 0.027752567
0.032272104 0.04999999 0.027895864
0.037710678 0.050000004 0.027320238
0.042537779 0.04999999 0.027285829
0.048181619 0.049511638 0.027996507
0.050000068 0.047558282 0.02727424
0.0026083754 0.050000075 0.027651671
0.0074155517 0.050000072 0.027607584
0.012283385 0.050000064 0.027531454
0.01763485 0.050000075 0.027585626
0.022354955 0.050000064 0.027520215
0.027587034 0.050000068 0.027446983
0.032380514 0.050000034 0.027520452
0.037692726 0.050000057 0.027489154
0.042499501 0.05000006 0.027529223
0.047626972 0.05000006 0.027468584
0.0012041251 0.0012551198 0.032393981
0.0075224573 0 0.032501835
0.012460359 0 0.032490257
0.017682273 0 0.032297838
0.022582134 0 0.032522235
0.027801298 0 0.032546069
0.032520242 0 0.032370966
0.037764557 0 0.032315981
0.042414639 0 0.032440707
0.04772405 0.00031086736 0.032429978
0.050000038 0.0024332143 0.032447938
0 0.0075575458 0.032430612
0.050000004 0.0075461203 0.032755498
0.050000075 0.0074346773 0.032365177
0 0.012301432 0.032396745
0.050000004 0.012159352 0.032338399
0.050000068 0.012588995 0.032411646
0 0.017519899 0.032512981
0.049999986 0.017640358 0.032408737
0.05000006 0.017325155 0.032478716
0 0.0225427 0.032241344
0.049999986 0.022422077 0.033034403
0.050000053 0.02256838 0.032468535
0 0.027399879 0.03227542
0.04999999 0.027259167 0.032560255
0.050000049 0.027626012 0.032357834
0 0.03240389 0.032443449
0.050000001 0.032561038 0.033761475
0.05000006 0.032703225 0.032405477
0 0.037427675 0.032622173
0.050000001 0.037927952 0.031133259
0.050000064 0.037454903 0.032758769
0 0.042397436 0.032391582
0.04999999 0.042460483 0.032970924
0.050000072 0.042464528 0.032617118
0.00051719113 0.048087016 0.032488707
0.0076993853 0.049999993 0.032714829
0.013072501 0.050000004 0.031265151
0.017553356 0.049999982 0.033293471
0.022826362 0.049999982 0.032550722
0.027571172 0.049999993 0.032573819
0.03208166 0.049999978 0.032634079
0.037437644 0.050000001 0.032275621
0.042555481 0.050000004 0.033055868
0.049006399 0.048646081 0.03244273
0.050000075 0.047482427 0.032548457
0.0024045417 0.050000064 0.032594182
0.007612545 0.050000053 0.03258457
0.012676368 0.050000064 0.032547802
0.01754405 0.050000075 0.032366022
0.022324631 0.050000057 0.032494038
0.027478943 0.05000006 0.032440975
0.032391109 0.050000045 0.032719851
0.037353866 0.050000072 0.032397274
0.042580437 0.050000079 0.032508928
0.047389168 0.050000064 0.032481629
0.0011463577 0.0013672897 0.037397828
0.0073377998 0 0.037458278
0.012664 0 0.037354019
0.017613489 0 0.037479404
0.022497708 0 0.037622306
0.027519993 0 0.037544016
0.032506883 0 0.037642345
0.03745563 0 0.037608765
0.042606052 0 0.037536424
0.047739174 0.00026682275 0.037361097
0.050000075 0.0024687608 0.037522718
0 0.0074502518 0.03743647
0.050000004 0.0074447505 0.037934713
0.050000068 0.0076330318 0.037615884
0 0.012411713 0.037704851
0.050000004 0.012190736 0.038368635
0.050000083 0.012646251 0.037299655
0 0.017328735 0.03746837
0.050000004 0.017331259 0.037151881
0.050000083 0.017456869 0.037593171
0 0.022454752 0.037463997
0.050000004 0.022737695 0.03711142
0.050000034 0.022692189 0.037528887
0 0.027610311 0.037262488
0.049999986 0.027682817 0.038048051
0.050000068 0.027396224 0.037527435
0 0.032534223 0.037603118
0.049999978 0.032210782 0.03739712
0.050000031 0.032500234 0.037621468
0 0.037571095 0.037453111
0.049999986 0.037548847 0.038108446
0.050000075 0.037426885 0.037271824
0 0.042495493 0.037443601
0.049999978 0.042320281 0.037459116
0.050000038 0.042539071 0.037347242
0.00038006136 0.047844015 0.037490189
0.0078398306 0.049999982 0.037440266
0.012677976 0.049999986 0.038260903
0.017713547 0.049999982 0.037209205
0.022305032 0.04999999 0.037415214
0.026890855 0.050000001 0.03657005
0.032405745 0.050000004 0.036994934
0.037248053 0.050000001 0.038043655
0.042435031 0.050000004 0.037961058
0.048704654 0.048473496 0.037631284
0.05000006 0.04739856 0.037707526
0.0024281398 0.050000057 0.037411802
0.0073681255 0.050000068 0.037510589
0.012565109 0.050000079 0.037397243
0.01736849 0.05000006 0.037497327
0.022554358 0.050000049 0.037333652
0.027672578 0.050000079 0.037612215
0.032478534 0.050000075 0.037470184
0.037410423 0.050000072 0.037514798
0.042417713 0.050000079 0.03743941
0.047551263 0.050000086 0.03741847
0.001258621 0.0012099876 0.042514231
0.0075919186 0 0.042537086
0.012195557 0 0.042489853
0.017639104 0 0.042412259
0.022504995 0 0.042652033
0.027567374 0 0.042659029
0.032448929 0 0.042413581
0.037435342 0 0.042529587
0.042509526 0 0.042542797
0.047864709 0.0002664059 0.04239133
0.050000049 0.0025572116 0.042445447
0 0.0072200489 0.042571288
0.050000004 0.0073954421 0.042612903
0.050000079 0.0074585611 0.042564463
0 0.012496959 0.042676169
0.050000004 0.012012956 0.042331912
0.050000072 0.012619554 0.042412229
0 0.017542928 0.042478729
0.050000001 0.01684951 0.042494658
0.050000072 0.01746727 0.042502131
0 0.022621106 0.042298317
0.050000004 0.023317037 0.042979348
0.050000064 0.022475697 0.042439893
0 0.027369782 0.042473752
0.050000001 0.02710042 0.042255946
0.050000064 0.027615817 0.042647492
0 0.032543119 0.042595219
0.049999986 0.032078043 0.042427074
0.050000034 0.032424405 0.042665508
0 0.037656773 0.042387612
0.049999978 0.037457865 0.042126078
0.050000023 0.037438639 0.042631838
0 0.04251685 0.042582124
0.049999993 0.041851297 0.042135354
0.050000064 0.042446963 0.042681694
0.00018987406 0.047931481 0.042583916
0.0083869761 0.04999999 0.042331707
0.012268999 0.049999982 0.042326629
0.01715111 0.049999978 0.041827146
0.022634096 0.050000001 0.042173263
0.02741307 0.050000004 0.042970456
0.031406581 0.049999997 0.042514943
0.036976457 0.050000004 0.042525943
0.041603487 0.050000004 0.04267206
0.048365369 0.048882049 0.042326488
0.050000049 0.047663916 0.042343605
0.0023456635 0.050000075 0.042584829
0.0071587553 0.050000068 0.04256599
0.012539961 0.050000057 0.042430308
0.017732535 0.050000053 0.04254514
0.022265427 0.050000075 0.042579144
0.027523361 0.050000053 0.042393632
0.032495342 0.050000068 0.042528242
0.037484199 0.050000086 0.04243226
0.042499695 0.050000064 0.042489991
0.047477189 0.050000079 0.042553868
0.0012233597 0.0012983034 0.047298878
0.007496505 0 0.047326788
0.012418943 0 0.047616236
0.01753141 6.5388733e-05 0.047517214
0.022437839 0.00012812611 0.047662243
0.027531641 0.00017925938 0.047684718
0.032599527 0.00038595471 0.047944311
0.037579194 0.00026140217 0.047843263
0.042359468 0.00023213729 0.047971651
0.047734957 0.00044891416 0.047528695
0.050000072 0.0025671381 0.047620676
0.00015687427 0.0075309677 0.047716498
0.0064694011 0.0084956074 0.050000001
0.023744324 0.0065763118 0.050000004
0.02660246 0.0088263238 0.050000001
0.032564074 0.0078583751 0.050000004
0.037691254 0.0076102973 0.04999999
0.042448282 0.0076538026 0.049999982
0.049054861 0.0076347617 0.048533503
0.050000064 0.0074917697 0.047445796
0.00018591508 0.012467237 0.047775548
0.008170953 0.012619407 0.049999997
0.01168278 0.013206309 0.050000001
0.019369176 0.014285871 0.049999997
0.02223896 0.013666224 0.050000001
0.027471785 0.011821599 0.049999993
0.030980736 0.01294003 0.050000004
0.038266029 0.012515943 0.049999986
0.042416707 0.01289014 0.049999982
0.048060615 0.012433578 0.049263701
0.050000068 0.012508463 0.047419537
0.0004202851 0.017778039 0.047844391
0.0076539358 0.017748453 0.049999982
0.012425621 0.017296214 0.049999982
0.017530501 0.017625391 0.049999986
0.021593815 0.015654825 0.049999997
0.033504389 0.01729607 0.050000004
0.037745178 0.017625956 0.049999978
0.042064399 0.016991472 0.049999982
0.048147358 0.017599633 0.049643293
0.050000038 0.017593557 0.047571611
0.00032010055 0.022461984 0.047795165
0.0076859673 0.022615917 0.049999986
0.013034925 0.022453712 0.049999978
0.018085074 0.022736348 0.049999978
0.021322509 0.022771679 0.050000001
0.028079866 0.023536144 0.050000004
0.032903727 0.022144537 0.049999982
0.037501581 0.022544559 0.049999978
0.041579291 0.023347037 0.049999993
0.048914731 0.021743579 0.048585292
0.050000064 0.022515658 0.047642719
0 0.027521117 0.047547955
0.0089203427 0.026505722 0.050000001
0.014300968 0.026488075 0.049999997
0.017754136 0.028064799 0.04999999
0.022349115 0.027507072 0.050000004
0.027329711 0.027846232 0.050000004
0.032629982 0.027430004 0.049999982
0.037411194 0.027256412 0.050000004
0.043057844 0.027205504 0.050000001
0.048616715 0.027532009 0.049121782
0.05000006 0.027455162 0.047380075
0.00040760325 0.032683853 0.04792897
0.0075063244 0.032945562 0.050000004
0.011993747 0.032638844 0.04999999
0.017763713 0.032226436 0.049999982
0.022285802 0.032606781 0.049999982
0.02752869 0.032442942 0.049999982
0.032763883 0.0322919 0.049999978
0.038031496 0.032408554 0.050000004
0.042248923 0.032465149 0.050000004
0.049230151 0.032318175 0.048640933
0.050000068 0.032420997 0.047407918
0 0.037550636 0.047579698
0.012779433 0.037641134 0.050000001
0.019342856 0.036249943 0.049999997
0.022529092 0.037535381 0.04999999
0.027125109 0.037835781 0.050000004
0.032553229 0.038470224 0.050000004
0.037652802 0.037190109 0.050000004
0.042292226 0.036721725 0.050000004
0.048936784 0.037419725 0.04849508
0.050000049 0.037519902 0.047694504
0 0.042388413 0.047271084
0.014358506 0.043350738 0.050000001
0.015251389 0.042926706 0.049999997
0.022970585 0.042758849 0.050000004
0.027760163 0.043014459 0.049999997
0.032796033 0.042429227 0.050000004
0.037907418 0.042801607 0.050000004
0.042061333 0.042743847 0.049999993
0.048555236 0.042594846 0.048604902
0.050000064 0.042770319 0.047795627
0.00019868693 0.047874317 0.047722071
0.0073696803 0.050000004 0.047451384
0.012816501 0.04999999 0.047215842
0.017265359 0.049319256 0.048461337
0.022252819 0.049737483 0.048059959
0.02765703 0.048594374 0.048895188
0.031731937 0.048416566 0.049199678
0.037262332 0.048588522 0.049080539
0.042626098 0.048764776 0.048712917
0.047996957 0.048570074 0.048179273
0.050000057 0.047245175 0.04755225
0.0024961494 0.050000075 0.047506198
0.0073916684 0.050000083 0.047663167
0.012381606 0.050000064 0.047221724
0.017229522 0.050000045 0.04759207
0.022573957 0.050000079 0.047381163
0.027329462 0.050000064 0.047506679
0.03240655 0.050000042 0.047493801
0.03754811 0.050000083 0.047413576
0.042633101 0.050000075 0.047484461
0.047614459 0.050000038 0.047365211
0.0025877547 0.00242855 0.050000083
0.0074083456 0.0026176805 0.050000083
0.012373968 0.0023689691 0.050000083
0.017380314 0.0023309689 0.050000075
0.022429455 0.0024257116 0.050000064
0.027472144 0.0026655982 0.050000068
0.032517873 0.0025630877 0.050000075
0.037364166 0.0025768369 0.050000057
0.042542357 0.0026170218 0.050000075
0.047365632 0.0025167044 0.050000079
0.0026659064 0.0075302343 0.050000057
0.0076521845 0.0076348856 0.050000064
0.012644277 0.007204432 0.050000094
0.017557543 0.0074417898 0.050000079
0.022763127 0.0077483244 0.050000072
0.027541291 0.0075378874 0.050000079
0.032322127 0.0076511325 0.05000006
0.037525911 0.0077180811 0.050000057
0.042574134 0.0074912133 0.050000057
0.047543325 0.00750827 0.050000053
0.0025828786 0.012452296 0.050000072
0.0076738 0.012299965 0.050000064
0.012595396 0.012375884 0.050000083
0.017520297 0.012353846 0.050000068
0.022399327 0.012183337 0.050000068
0.027526636 0.01267758 0.050000075
0.032577071 0.012463835 0.050000075
0.037434425 0.012652447 0.050000057
0.042728044 0.012695287 0.050000038
0.047419712 0.012355126 0.050000057
0.0024177632 0.017431822 0.05000006
0.0074678124 0.017506855 0.050000049
0.012645943 0.017617863 0.050000045
0.01735967 0.017409785 0.050000042
0.022731042 0.017654538 0.050000068
0.02749747 0.017484484 0.05000009
0.032309018 0.017481415 0.050000053
0.037531223 0.017191982 0.050000034
0.042315781 0.017670488 0.050000057
0.047434364 0.017425632 0.050000057
0.00270611 0.022490423 0.050000034
0.0075192181 0.022534888 0.050000053
0.012306712 0.022604089 0.050000049
0.017479902 0.022507887 0.050000064
0.022389255 0.022344694 0.050000072
0.027449481 0.022372356 0.050000053
0.032365877 0.022502476 0.050000057
0.037379969 0.022561179 0.050000038
0.042750809 0.02254054 0.050000075
0.04745546 0.022457585 0.050000057
0.0024466764 0.027388409 0.050000086
0.0075127417 0.027560314 0.050000083
0.012488451 0.027445026 0.050000072
0.0175364 0.027288806 0.050000064
0.022181589 0.027701156 0.050000053
0.027577018 0.027630297 0.050000068
0.032374483 0.027526293 0.050000034
0.037641909 0.027688526 0.050000053
0.042417552 0.027661094 0.050000072
0.047551759 0.027412374 0.050000064
0.0025500127 0.032334074 0.050000075
0.0073479642 0.032374535 0.050000072
0.012384861 0.032335039 0.050000068
0.017214434 0.032593742 0.050000053
0.022452528 0.032543652 0.050000038
0.027451869 0.032432664 0.050000075
0.032423429 0.032569133 0.050000057
0.037541453 0.032435924 0.050000079
0.042475473 0.032393388 0.050000064
0.047524579 0.032545075 0.050000075
0.0023470505 0.037443243 0.050000079
0.0075182086 0.037605412 0.050000083
0.012358783 0.037612021 0.050000072
0.017545564 0.037482273 0.050000072
0.022688881 0.037637066 0.050000045
0.027544981 0.037624285 0.050000072
0.032362953 0.037371859 0.050000068
0.037337542 0.037500694 0.050000064
0.042495657 0.037405461 0.050000083
0.047530215 0.037541434 0.050000075
0.0025974922 0.042533822 0.050000079
0.0072696693 0.042423345 0.050000086
0.012328416 0.042530622 0.050000075
0.017631404 0.042561118 0.050000075
0.022289302 0.042429019 0.050000064
0.027367549 0.042192589 0.050000045
0.032576561 0.042412888 0.050000075
0.037554137 0.042451404 0.050000064
0.042553313 0.04247538 0.050000072
0.047423832 0.042575065 0.050000075
0.0024117145 0.04735544 0.050000075
0.0076472387 0.047352258 0.050000072
0.012369234 0.047612268 0.05000009
0.017762771 0.047429796 0.050000064
0.022382876 0.047697965 0.050000072
0.027740093 0.047358304 0.050000072
0.032603674 0.04758152 0.050000064
0.037635639 0.047588095 0.050000042
0.042617328 0.047529563 0.050000049
0.047542728 0.047454201 0.050000075
