# .PCD v0.7 - Point Cloud Data file format
VERSION 0.7
FIELDS x y z
SIZE 4 4 4
TYPE F F F
COUNT 1 1 1
WIDTH 1352
HEIGHT 1
VIEWPOINT 0 0 0 1 0 0 0
POINTS 1352
DATA ascii
0.052510384 0.057426274 0
0.057377689 0.057403468 0
0.06280905 0.057155147 0
0.06761232 0.057580147 0
0.072754711 0.057631757 0
0.077666432 0.057500906 0
0.082487717 0.057621118 0
0.087590978 0.057481505 0
0.092570856 0.057265967 0
0.097971052 0.057496354 0.0016459124
0.0024851207 0.062258802 0.0021204029
0.007467899 0.062314358 0
0.012710528 0.06244342 0
0.017409721 0.062271941 0
0.022484563 0.062228262 0
0.027691359 0.062694676 0
0.032429039 0.06254103 0
0.037585184 0.062324762 0
0.042606946 0.062562145 0
0.047532987 0.062772527 0
0.052606914 0.062522329 0
0.057325449 0.062733382 0
0.062331159 0.062784962 0
0.067645021 0.062452842 0
0.072493248 0.062551215 0
0.078093559 0.062493224 0
0.082494631 0.062878072 0
0.087323278 0.062612168 0
0.09232039 0.062426656 0
0.097246386 0.062495038 0.0016889841
0.0035729934 0.067277722 0.0024253703
0.0075364914 0.067459427 6.5622757e-05
0.012761612 0.067497291 0
0.017624229 0.067817517 0
0.022598062 0.067520797 0
0.027350727 0.067799434 0
0.032281309 0.067602716 0
0.037596617 0.067588151 0
0.04257774 0.067546122 0
0.047243368 0.067605384 0
0.052332841 0.067728743 0
0.057687737 0.067657985 0
0.062674105 0.067786641 0
0.067599043 0.067193553 0
0.072614335 0.067705117 0
0.077411667 0.067975171 0
0.082595736 0.067503437 0
0.087223567 0.067639053 0
0.092554748 0.067511111 7.4255164e-05
0.096445248 0.06722486 0.0025017902
0.0046561114 0.070632428 0.0030651912
0.0069535999 0.072740681 0.0016497872
0.012468944 0.072523594 0
0.017350344 0.072311684 0
0.02265879 0.072381809 0
0.027471744 0.072556973 0
0.032337103 0.072295949 0
0.037548289 0.072636716 0
0.042317774 0.072400838 0
0.047441613 0.072184712 0
0.052203134 0.072488435 0
0.05742972 0.072536729 0
0.062455475 0.072701767 0
0.067234658 0.072589509 0
0.072305545 0.072543271 0
0.077825189 0.072265938 0
0.082581267 0.072341941 0
0.087458655 0.072314389 0
0.093047693 0.072709449 0.0017743469
0.095401146 0.070466049 0.0032968638
0.0085152043 0.077139996 0.0028390824
0.012524559 0.077521108 0.0001623484
0.017615445 0.077328116 0
0.022518391 0.077114977 0
0.027660793 0.077569403 0
0.032510053 0.077525124 0
0.037555039 0.077534154 0
0.042384218 0.077461198 0
0.047583964 0.077406958 0
0.052314978 0.077521294 0
0.057670802 0.077376105 0
0.06214669 0.077619426 0
0.067580752 0.077680558 0
0.07250765 0.077562734 0
0.077466436 0.07759928 0
0.082493231 0.077652782 0
0.087832801 0.077675037 0.0002986867
0.091305323 0.07731165 0.0026376457
0.012790985 0.08227393 0.0024095527
0.017182559 0.082588576 8.6033724e-05
0.022428671 0.082813203 0
0.02760187 0.082615428 0
0.032578297 0.082428157 0
0.037615441 0.082418948 0
0.042471413 0.082449295 0
0.047321957 0.082595758 0
0.052275937 0.082491323 0
0.057243735 0.082578652 0
0.062335473 0.082422912 0
0.067730375 0.082396783 0
0.072524846 0.082258828 0
0.077763475 0.082446761 0
0.082480624 0.082623981 7.1911054e-05
0.087096818 0.082584105 0.0024409671
0.014754904 0.085240334 0.0031397268
0.017957885 0.087235741 0.0019754055
0.022034246 0.08769235 0.00037420547
0.027737698 0.087257244 0
0.03255007 0.087749481 0
0.037436474 0.087317847 0
0.042451885 0.087697759 0
0.047354527 0.087633565 0
0.052630123 0.087578021 0
0.057520848 0.087244667 0
0.06233542 0.087295026 0
0.067639187 0.087595776 0
0.072247319 0.087318055 0
0.077769011 0.087741025 0.00037947384
0.082019091 0.087268062 0.0020786331
0.08531113 0.085214287 0.0032896064
0.022882124 0.091441289 0.0024175227
0.027333606 0.092750095 0.0013126901
0.032448702 0.092441276 5.8643138e-05
0.037492555 0.092735313 0
0.042436358 0.093016014 0
0.047441505 0.092384666 0
0.052672815 0.092209563 0
0.057512779 0.092400268 0
0.062443487 0.092423588 0
0.067698129 0.092651002 7.075051e-05
0.072788231 0.092907444 0.001599528
0.07718806 0.091328301 0.0023595484
0.029214863 0.095364317 0.0033167012
0.032639854 0.096305378 0.0024979431
0.037541699 0.097412966 0.0017855108
0.042528763 0.098163791 0.0017567386
0.047257379 0.098199435 0.0015108573
0.052516166 0.098556839 0.0015880581
0.057200015 0.097935222 0.0015858739
0.062718607 0.097434111 0.002092541
0.067601867 0.096303962 0.0025759456
0.07073272 0.095395684 0.0032780813
0.029279411 0.0045554698 0.0074800346
0.032262757 0.0034054259 0.007663962
0.037540469 0.0016903231 0.007847988
0.042619392 0.00071337778 0.0071767885
0.047888312 0.00018031613 0.0074686832
0.052630454 0.00017902942 0.0073134969
0.057692707 0.00076545629 0.0075681517
0.062472854 0.0016902995 0.00772352
0.067569211 0.0033477361 0.0075321454
0.070755213 0.0045741526 0.0072843134
0.022526655 0.008359897 0.0076881065
0.026848646 0.0058708871 0.0075684325
0.073281214 0.0059411624 0.0075596268
0.077383958 0.0083002504 0.007718185
0.014787341 0.01467876 0.0074829455
0.017545909 0.012161339 0.0074169892
0.020095233 0.010132152 0.0074325269
0.079946809 0.010164874 0.0067486917
0.082789995 0.012432213 0.0073511796
0.085227691 0.01469507 0.0075719901
0.012308107 0.017385667 0.0073837871
0.087714054 0.017406477 0.0074302466
0.0083052088 0.022714527 0.0073913955
0.010053012 0.020039313 0.0079555018
0.089930423 0.020013936 0.0064890664
0.091497287 0.022412226 0.0071299491
0.004582237 0.029494798 0.007557434
0.0057449783 0.02694154 0.0076614968
0.09418574 0.026765997 0.0075191082
0.095358729 0.029360225 0.0073607387
0.003375669 0.032291166 0.0075976062
0.09667667 0.03242654 0.0073510506
0.0017554904 0.037530899 0.0076809335
0.098244935 0.037532609 0.0074560288
0.00065841444 0.042559065 0.007354625
0.099316344 0.04246166 0.0076335627
0.00019816829 0.047608469 0.0072917566
0.099798076 0.047563124 0.007786613
0.00022189264 0.052677833 0.0076101287
0.099775732 0.052706558 0.007639566
0.0006956007 0.057580505 0.0075894999
0.099313192 0.057554618 0.0075731301
0.0017291831 0.062365223 0.0075443145
0.098215602 0.062583275 0.0074347947
0.0033218183 0.067582346 0.0075686723
0.096748792 0.067406967 0.007493271
0.0046949 0.070762061 0.007360884
0.0058295783 0.073249638 0.0071126954
0.094169132 0.073263049 0.0073659811
0.09531828 0.070732027 0.0074622682
0.0084553976 0.077515364 0.0073837312
0.010039577 0.079940125 0.0078626648
0.089961685 0.079938225 0.007339546
0.091494367 0.077592261 0.0076181921
0.012138618 0.082435437 0.007737014
0.087848097 0.082444333 0.0074936985
0.014737253 0.085266836 0.0074153738
0.017681271 0.087954544 0.0074127284
0.020131283 0.089895912 0.0071569984
0.07981056 0.089941189 0.0066256528
0.082440935 0.087844193 0.0074220919
0.085285269 0.085242391 0.0074204109
0.022545559 0.091652572 0.0076178159
0.026695013 0.094045989 0.0073917876
0.073212788 0.094095886 0.0073974873
0.077435672 0.091668807 0.0074831075
0.029261498 0.095433451 0.0071036415
0.032271754 0.096597694 0.0078476435
0.037308838 0.098255306 0.0075163855
0.042243686 0.099223934 0.0073336349
0.047371797 0.099813782 0.0073115709
0.052459389 0.099816516 0.0074604363
0.057551652 0.099258095 0.0076051299
0.062319037 0.098343916 0.0075809625
0.067154385 0.096794695 0.0075063119
0.070636019 0.09548977 0.0079063531
0.029175714 0.0046119718 0.012268649
0.032375947 0.003366567 0.012699082
0.037636917 0.0016543438 0.012659947
0.042711958 0.00069793098 0.012438964
0.047646031 0.00018021575 0.012480043
0.052647866 0.00018137484 0.012450393
0.05753509 0.00073915598 0.012714406
0.062702619 0.0017531853 0.012558229
0.067235723 0.0032332542 0.012363431
0.07083644 0.0046181106 0.012471712
0.022339331 0.0084858108 0.012619493
0.026727466 0.005936468 0.01268658
0.073234126 0.0059156837 0.012570444
0.077465735 0.0083578909 0.012492903
0.014790782 0.014675017 0.011841781
0.017502591 0.012189442 0.01227502
0.020178877 0.010067048 0.013274106
0.079913475 0.010138917 0.012532586
0.082684569 0.012345202 0.012387373
0.08523462 0.014702618 0.012348678
0.012303744 0.017395515 0.012622401
0.087578654 0.017257189 0.012795718
0.008335419 0.022668274 0.012412718
0.010014323 0.02009853 0.011713392
0.091672018 0.022679655 0.012583546
0.0046123574 0.029426128 0.012430144
0.0057728491 0.02686259 0.012299902
0.094207413 0.026822807 0.012396744
0.095315352 0.029261343 0.012681162
0.0032362277 0.032641698 0.012494807
0.096655674 0.032364793 0.012498298
0.001846321 0.037172228 0.012634207
0.098228022 0.037465759 0.012186111
0.00067309086 0.042456124 0.012685525
0.099330492 0.042491995 0.01222292
0.00022945489 0.047230896 0.012567893
0.09977036 0.047228664 0.012665536
0.0002023751 0.052442301 0.012153651
0.099785894 0.052583732 0.012690978
0.00068584568 0.057545479 0.012631492
0.099295862 0.057732418 0.012395278
0.0016773163 0.06216041 0.012320763
0.098230362 0.062524937 0.012383606
0.0033787058 0.067717455 0.012542439
0.096644908 0.067651287 0.012265029
0.0046425881 0.070642807 0.012536573
0.0058476971 0.073281065 0.012433316
0.094167002 0.073252194 0.012645802
0.095338866 0.070685096 0.012343738
0.0082675107 0.077227779 0.012411608
0.010034082 0.079931721 0.01232587
0.091578119 0.077464059 0.012315434
0.012129374 0.082418919 0.01260885
0.087670699 0.082641229 0.012352236
0.014766282 0.085298367 0.012437794
0.01739894 0.087717228 0.012444871
0.0201465 0.089907758 0.01368967
0.079924501 0.089852497 0.01405956
0.082300335 0.087975271 0.012567262
0.085198596 0.085336521 0.012619612
0.022457371 0.091592707 0.012547825
0.026549511 0.093967251 0.012323132
0.073325031 0.094035149 0.012580216
0.077511512 0.091609269 0.012322454
0.029269164 0.095438294 0.012602471
0.032365099 0.096629731 0.01265086
0.037429526 0.098283798 0.012200136
0.042507254 0.099267915 0.012538801
0.047690671 0.099818975 0.012453372
0.052686848 0.099808492 0.012227907
0.057534948 0.099260867 0.012342645
0.062701121 0.098254256 0.012181299
0.067527175 0.096666709 0.012325972
0.070867017 0.095365353 0.012301853
0.029161358 0.0046193101 0.017649313
0.032520559 0.003316923 0.017609132
0.037250362 0.0017668883 0.017276054
0.042373043 0.00075448788 0.017342051
0.047565904 0.00017742817 0.017248625
0.052580602 0.00018407605 0.01762653
0.057658963 0.00075982907 0.017629366
0.062323391 0.0016482593 0.017609391
0.067512117 0.0033281408 0.01737128
0.07073471 0.0045636813 0.01767756
0.022592099 0.0083169378 0.017443053
0.026674815 0.00596496 0.017707916
0.07320489 0.0058998591 0.017302373
0.077252761 0.0082254168 0.017355893
0.014782147 0.014684399 0.017809436
0.017310519 0.01234877 0.017464871
0.020144289 0.010093969 0.018255215
0.079883121 0.010115303 0.017556272
0.082613088 0.01230652 0.01766751
0.085266076 0.014736789 0.017342526
0.012346599 0.017339608 0.017743079
0.087614551 0.017298143 0.017554995
0.0084984954 0.022418672 0.017401202
0.010044029 0.020053059 0.016966876
0.089980647 0.020090828 0.018724661
0.091561653 0.02251078 0.017798493
0.0046147904 0.029420579 0.017473076
0.0057391413 0.026927343 0.017336616
0.094232619 0.026866214 0.017492622
0.095317125 0.02926537 0.017690366
0.0032953345 0.032498058 0.017710807
0.096630797 0.032338556 0.017761612
0.0017003918 0.037748475 0.017507473
0.098169744 0.037235711 0.017465236
0.00066851277 0.042528853 0.017243991
0.099338084 0.042580623 0.017536053
0.00019627482 0.047631327 0.017533999
0.099790215 0.047468189 0.017524596
0.00021873521 0.052639745 0.017615188
0.099791884 0.052511472 0.017560845
0.00069860328 0.05765678 0.017549632
0.099337943 0.057469655 0.017397927
0.0017818955 0.062573373 0.017463461
0.098241068 0.062482741 0.017271752
0.0032758501 0.067461222 0.017240472
0.096663803 0.067586839 0.017533842
0.004666714 0.070697807 0.017498797
0.005745694 0.073067784 0.01770067
0.094162881 0.073260695 0.017167622
0.095283389 0.070811525 0.018160211
0.0083688376 0.077382892 0.017582567
0.010063235 0.079976343 0.015705219
0.089970291 0.079925038 0.01718206
0.091680907 0.077306718 0.017577935
0.012284658 0.082588956 0.017672898
0.088020675 0.082251698 0.017444266
0.014699462 0.085225783 0.017202722
0.017500311 0.087809063 0.017585561
0.020149119 0.089909799 0.016076453
0.079889469 0.089879766 0.016411483
0.082655326 0.087686077 0.017348798
0.085270546 0.085258365 0.017313037
0.022438597 0.091588259 0.017596638
0.026722351 0.094060786 0.017420478
0.073421106 0.093983136 0.01729577
0.077614874 0.091542594 0.017791189
0.029112635 0.095354326 0.018074814
0.032369401 0.096631199 0.01753494
0.037399378 0.098273121 0.01768356
0.04283978 0.099323407 0.017369224
0.047542971 0.099817574 0.017705064
0.052592151 0.099810176 0.017548002
0.057368722 0.09928862 0.017437646
0.062607102 0.098279044 0.017555894
0.06758675 0.096646257 0.017587494
0.070794776 0.095403321 0.017522175
0.029293971 0.0045488183 0.022476044
0.032413673 0.0033536174 0.022620237
0.037585471 0.0016834383 0.022487674
0.042653285 0.00070772186 0.022500183
0.047552012 0.00018444099 0.022573598
0.052578658 0.00018979833 0.022275265
0.057460595 0.00072672544 0.022579495
0.062569812 0.0017180252 0.022694344
0.067692116 0.0033899415 0.022235416
0.070920497 0.0046636076 0.022321882
0.022449741 0.008414506 0.022436414
0.026757708 0.0059200991 0.02231575
0.073327415 0.0059661702 0.022372073
0.077288993 0.0082557434 0.022724118
0.014723418 0.014748197 0.022571776
0.017612668 0.012103325 0.02259725
0.020064663 0.010155946 0.022520784
0.07981687 0.01006374 0.02289428
0.082540356 0.012224212 0.022417907
0.085291594 0.014764498 0.022791414
0.012222267 0.017481197 0.02263486
0.087706611 0.017400527 0.022614382
0.0083236555 0.022686284 0.022709476
0.010046192 0.020049751 0.022121483
0.089950003 0.020043921 0.0225024
0.091536254 0.022471879 0.02249648
0.0046381839 0.029367248 0.022949107
0.0058642444 0.026691008 0.022318713
0.09423577 0.026873322 0.022496032
0.095356047 0.029354108 0.02235
0.0032659573 0.032567106 0.022599733
0.096771412 0.03265325 0.022565508
0.0018038455 0.037339956 0.022877509
0.098244332 0.037530273 0.022517104
0.00066828757 0.042523608 0.022543788
0.099320613 0.042514369 0.022811821
0.00020546599 0.047520403 0.02247295
0.099782109 0.047370508 0.02221982
0.00022856602 0.052758366 0.022394791
0.099822126 0.052146692 0.022477916
0.0006492773 0.057266109 0.022880064
0.09929806 0.057651974 0.022408241
0.0017914682 0.062611178 0.022378193
0.098238505 0.062492814 0.022226427
0.003383762 0.067723997 0.022373877
0.096649908 0.067667015 0.022438455
0.0046961582 0.070764937 0.022303084
0.0058547836 0.073295154 0.022660419
0.094215348 0.073154047 0.022728665
0.095305562 0.070761025 0.0227674
0.0083800415 0.077400036 0.022287259
0.010034569 0.079932466 0.023428081
0.089958377 0.079943262 0.023219109
0.091508448 0.077570699 0.022442851
0.012268608 0.082574546 0.0224928
0.087777205 0.082521699 0.02269523
0.014705333 0.085232161 0.022499558
0.017290054 0.087632805 0.022428099
0.020149328 0.089909948 0.021913797
0.079843462 0.089915581 0.023221968
0.082666688 0.087674305 0.022344794
0.085160628 0.08537776 0.022348648
0.022644298 0.091708973 0.022332542
0.026928417 0.094172299 0.022435404
0.073304385 0.094046324 0.022560157
0.077312276 0.0917404 0.02249218
0.029256482 0.095431589 0.022095079
0.032532219 0.096687093 0.02262236
0.037552193 0.09831471 0.022597382
0.042557459 0.099276297 0.022681678
0.047650047 0.099812351 0.022412425
0.052585222 0.099816658 0.02259063
0.057436116 0.099277362 0.022363719
0.062603317 0.098278113 0.022526223
0.067543939 0.096660942 0.022506796
0.070716411 0.095446348 0.022528989
0.029200045 0.0045987954 0.027510786
0.03202296 0.0034877523 0.027717447
0.03755974 0.001688515 0.027669316
0.042275887 0.00077070069 0.0272914
0.047437102 0.00018451498 0.027523208
0.052643105 0.00018740536 0.027429668
0.057646148 0.00075768784 0.027431952
0.062600143 0.0017261517 0.027360495
0.067652173 0.0033762224 0.027633719
0.070783369 0.0045893942 0.026886379
0.022539029 0.0083510457 0.027232576
0.026555816 0.00602936 0.027616804
0.073287547 0.0059445873 0.027980149
0.077599317 0.0084407013 0.027315522
0.014706714 0.014766342 0.027446972
0.017348813 0.012313815 0.027451178
0.020183545 0.010063415 0.027496504
0.079893142 0.010123109 0.027686128
0.082555905 0.012246548 0.027568271
0.085266598 0.014737347 0.027939104
0.012022572 0.017695757 0.027352693
0.08774554 0.017447008 0.027642356
0.0083147092 0.022699982 0.027349204
0.089957289 0.020055071 0.027523458
0.091440029 0.022324579 0.02753219
0.0047506536 0.029110845 0.027954958
0.0059289248 0.026554735 0.027388318
0.094113372 0.026624834 0.027397009
0.095308647 0.029246049 0.027403044
0.0032575175 0.032581519 0.027548457
0.096742295 0.032588173 0.027602844
0.0017808817 0.037430633 0.027214728
0.098242655 0.037523627 0.027569428
0.00072166504 0.042178109 0.027494283
0.099323526 0.04243549 0.027439352
0.00018624745 0.047752332 0.027576752
0.09977188 0.047247186 0.027627854
0.0002276039 0.052746762 0.027302375
0.099824175 0.052121885 0.027552966
0.00071920117 0.057843987 0.027595486
0.099321961 0.057465661 0.027385551
0.001836433 0.062788755 0.027460657
0.098313026 0.062198535 0.027470086
0.0032944609 0.067498676 0.027224669
0.096568219 0.067835651 0.027453007
0.004663032 0.07068941 0.027651288
0.0059074042 0.073434092 0.027625507
0.094108082 0.073364526 0.027773168
0.095280051 0.070819177 0.027225945
0.008382922 0.077404454 0.027626185
0.010040466 0.079941481 0.025620153
0.089957878 0.079944037 0.025556795
0.091662712 0.077334598 0.027759084
0.012057274 0.082341515 0.027373809
0.087717474 0.082587995 0.0271727
0.01461916 0.085138537 0.026963441
0.017381694 0.087710172 0.027119184
0.020073339 0.089850813 0.027982097
0.07987041 0.089894585 0.026891287
0.082611844 0.087714389 0.027473046
0.085142069 0.085397922 0.027710857
0.022368826 0.091520339 0.027659094
0.026788481 0.094096556 0.027522685
0.073289268 0.094054498 0.027221426
0.077400818 0.091685273 0.027414065
0.029258948 0.095433176 0.027902471
0.032319557 0.09661407 0.027485758
0.037733726 0.098365955 0.027324816
0.042666607 0.099294513 0.027894823
0.047716819 0.099820472 0.027528785
0.052312423 0.099820226 0.027775345
0.057341781 0.099293105 0.027746852
0.062483285 0.098309852 0.027375298
0.067407914 0.096707642 0.027283236
0.070773832 0.095415778 0.027925208
0.029182168 0.0046085897 0.032662325
0.032574233 0.0032984971 0.032648992
0.037478913 0.0017029188 0.032518882
0.042093687 0.00080110342 0.032537408
0.047425497 0.00018734705 0.032681838
0.052429449 0.0001834048 0.032437649
0.057690248 0.00076504657 0.032433059
0.062628202 0.0017221553 0.032340385
0.067417353 0.0032956072 0.032322526
0.070817664 0.0046079583 0.032792464
0.022639753 0.0083003659 0.032484736
0.026575999 0.006018437 0.032242801
0.07326825 0.0059341453 0.032449216
0.077280104 0.0082553197 0.032453377
0.014762291 0.014705971 0.032667104
0.017179525 0.012466106 0.032365158
0.020128058 0.010106602 0.033463571
0.079861932 0.010098809 0.033041313
0.082614206 0.012290965 0.032699823
0.085246131 0.014715115 0.031728826
0.012422889 0.017253129 0.032681145
0.087960102 0.017687425 0.032463603
0.0082466882 0.022804087 0.032766245
0.010035589 0.020065978 0.033265106
0.089945473 0.020036982 0.032722075
0.091498941 0.022414763 0.032323197
0.0047397823 0.029135626 0.033241037
0.0057643885 0.026870625 0.032465398
0.094214477 0.026849838 0.032444857
0.095266052 0.029148912 0.032240856
0.0033563368 0.032322463 0.032411288
0.09658435 0.032200094 0.03245005
0.0017723416 0.037464358 0.032430381
0.098272219 0.037640389 0.032495167
0.00068759662 0.042363279 0.032619044
0.09932027 0.042468812 0.032488469
0.00022060808 0.04733767 0.032458175
0.099805653 0.047654554 0.032585591
0.00020365174 0.052457705 0.032656856
0.099795945 0.052462522 0.032576285
0.00065991259 0.057394542 0.03271443
0.099326864 0.057536904 0.032702666
0.0017312603 0.062373422 0.032510322
0.098177984 0.06273187 0.032443993
0.0034197494 0.067813233 0.032629952
0.096644118 0.067655832 0.032518636
0.0047481167 0.070883386 0.032176338
0.0058596432 0.073298417 0.032404758
0.094125226 0.073330872 0.032787319
0.095271289 0.070839182 0.032637369
0.0084184594 0.077458836 0.032375738
0.010056081 0.07996539 0.032519918
0.089952618 0.079952098 0.032039519
0.091517977 0.077556133 0.03260624
0.012373319 0.082685143 0.032568116
0.08778172 0.082510881 0.032649603
0.014741966 0.085271955 0.031988245
0.01722124 0.087583348 0.032413051
0.020137878 0.089901052 0.031651717
0.079865322 0.089898564 0.032070003
0.082567096 0.08775837 0.032518927
0.085207142 0.085327245 0.032317795
0.022761438 0.091807641 0.032449577
0.026556123 0.093970828 0.032731634
0.073278032 0.09406057 0.032555021
0.077394299 0.09166982 0.032456536
0.029294763 0.095451027 0.032345716
0.03265452 0.096729077 0.032275815
0.037335362 0.098266937 0.032817777
0.042691994 0.099298753 0.032215599
0.047375921 0.099812694 0.032493934
0.05251953 0.099816792 0.032381594
0.057299461 0.099300161 0.032345723
0.062624224 0.098274976 0.03244628
0.067504503 0.096674457 0.032270022
0.070872553 0.095361836 0.032450441
0.029326582 0.004530326 0.037930969
0.032558128 0.0033040266 0.037386663
0.037445776 0.0017170397 0.037238415
0.042255521 0.00077409856 0.037607204
0.047434367 0.00018287932 0.037585065
0.052479398 0.00018187641 0.037576202
0.057726439 0.00077108719 0.03723697
0.062384121 0.001675218 0.037642054
0.06752681 0.0033331846 0.036934413
0.070765465 0.0045797033 0.037559826
0.022538353 0.0083682099 0.037679438
0.026792845 0.0059010843 0.037216991
0.072925165 0.0057484866 0.037680548
0.077373803 0.0083069215 0.037522577
0.014761682 0.014706631 0.037804373
0.017591311 0.012122217 0.0374563
0.020095497 0.010131949 0.037848655
0.079850025 0.010089543 0.036349878
0.082089067 0.011851783 0.037440281
0.085257925 0.014727917 0.03832208
0.012237026 0.017460389 0.037429523
0.087715112 0.017412379 0.037485544
0.0083984882 0.022571741 0.037475873
0.010050793 0.020042704 0.037979119
0.089974336 0.020081159 0.037501685
0.091722801 0.022757374 0.037491027
0.0046392097 0.02936491 0.037010215
0.0057889526 0.026813468 0.03769194
0.094270132 0.026953852 0.0372371
0.095337056 0.0293108 0.037268709
0.0032929797 0.032492831 0.037538502
0.096805565 0.032730661 0.037757643
0.0017384186 0.037598319 0.037447833
0.098224275 0.037450988 0.03778588
0.00068813458 0.04238949 0.037247933
0.099340342 0.042578455 0.037630513
0.00018728315 0.047739837 0.037456844
0.099776417 0.047302019 0.037516277
0.00023619115 0.052850384 0.03752026
0.099804118 0.052364316 0.037552357
0.00065759564 0.057394654 0.037696481
0.099312104 0.057597231 0.037674669
0.001811475 0.062690198 0.037457962
0.098177955 0.062731922 0.037559338
0.0033207573 0.067588955 0.037646152
0.096710011 0.067496836 0.037633169
0.0046338122 0.070622802 0.037295457
0.0058435365 0.073272899 0.037466183
0.094146498 0.07329639 0.03762332
0.095347255 0.070665963 0.036870409
0.0084108803 0.077447221 0.037367258
0.010036817 0.079935901 0.03734659
0.089943558 0.079965957 0.03811181
0.091621526 0.077397622 0.037784476
0.012036785 0.082306892 0.037477169
0.087511852 0.082815528 0.037191011
0.014774199 0.085306965 0.037612025
0.017459523 0.087777101 0.037530985
0.020099152 0.089870907 0.037442934
0.079945244 0.089836359 0.037355464
0.082483195 0.087821729 0.037672874
0.085275255 0.085253261 0.037789777
0.022697551 0.091757953 0.037359722
0.026696179 0.094046623 0.037124678
0.073202342 0.094101533 0.03762643
0.077260509 0.091769792 0.037482139
0.029129656 0.09536355 0.037793435
0.032472339 0.096666537 0.037506577
0.037401911 0.098260902 0.037387881
0.042704847 0.099300869 0.037370779
0.047815543 0.099819995 0.037609439
0.052818637 0.099812649 0.037458725
0.057383418 0.099286176 0.03720925
0.062714465 0.098247863 0.037555829
0.067210861 0.096775264 0.037416801
0.070699319 0.095455751 0.037569236
0.029228842 0.0045844563 0.042044412
0.032412071 0.0033541669 0.042287871
0.037332539 0.0017356648 0.042330716
0.04248517 0.00073577551 0.042593021
0.047553223 0.00018276423 0.042407867
0.052235767 0.00018227148 0.042316698
0.057509255 0.00073484558 0.042248681
0.06254863 0.0017205052 0.042491272
0.067503385 0.0033251438 0.04252724
0.070782676 0.0045892685 0.042672846
0.022914808 0.0081127388 0.042391825
0.026707891 0.0059470572 0.042441536
0.073236115 0.005916758 0.042483762
0.077487469 0.008385295 0.042454857
0.014709685 0.014763114 0.042883754
0.01742659 0.012251279 0.042534638
0.020174852 0.010070182 0.041468453
0.079892308 0.010122448 0.042705994
0.082622625 0.012299441 0.042210337
0.085240327 0.014708802 0.041392911
0.012266756 0.017433686 0.042648498
0.08795692 0.017672174 0.042527523
0.0085585136 0.022326808 0.042335708
0.010075451 0.020004964 0.041700173
0.089960359 0.020059757 0.042060066
0.091529496 0.022461513 0.042414896
0.004698005 0.029230872 0.042238317
0.0058160508 0.026778853 0.042528268
0.094119392 0.026672319 0.042607632
0.095318571 0.029268645 0.042406224
0.0033871159 0.032271869 0.042618208
0.096645638 0.032342963 0.042604961
0.0017495616 0.037554316 0.042477585
0.098211005 0.037398584 0.042551793
0.00064568559 0.042794958 0.042424809
0.099345185 0.042638645 0.042449396
0.00022571329 0.047276065 0.042319506
0.099781968 0.047368623 0.042510733
0.0001916632 0.05231303 0.042322118
0.099774502 0.052721307 0.042432778
0.00066808431 0.057464805 0.04250535
0.099300072 0.05765862 0.042457256
0.0017691569 0.062523082 0.042477775
0.098252289 0.062438324 0.042312626
0.0032489416 0.067383125 0.042428993
0.096610226 0.067741886 0.042440213
0.0047314488 0.07084538 0.042703662
0.0059324112 0.073452875 0.042600002
0.094105273 0.073359877 0.042677745
0.095263645 0.070856571 0.042901773
0.0082706623 0.077232599 0.042610202
0.01004038 0.079941362 0.040901534
0.08995042 0.079955451 0.043940779
0.091521047 0.077551417 0.042361997
0.012590194 0.082928464 0.042453706
0.087560304 0.082761206 0.042543646
0.014731913 0.085261032 0.042290948
0.017452879 0.087772325 0.042149667
0.020159688 0.089918017 0.042683024
0.079838753 0.089919247 0.04167898
0.082623944 0.087712131 0.042551067
0.085138269 0.085402049 0.0427614
0.022569355 0.091660894 0.04258845
0.026594782 0.093991749 0.042727675
0.07331346 0.094041377 0.042444944
0.077578142 0.091582149 0.042535499
0.029305611 0.095458329 0.041979149
0.032695848 0.096743271 0.042597774
0.037809756 0.098391615 0.042500533
0.04229423 0.099232398 0.042511664
0.047548611 0.099819995 0.042453162
0.052564111 0.099813595 0.042335823
0.057712302 0.099231288 0.042686567
0.062360212 0.098335467 0.042307358
0.067543492 0.096661106 0.042500116
0.07087072 0.095363274 0.042501606
0.02931449 0.0045365165 0.047474541
0.032490492 0.003367784 0.047514111
0.037525374 0.0018204219 0.047622714
0.042411894 0.0010845443 0.047441848
0.047731698 0.00027596939 0.04775469
0.052672792 0.00023254327 0.047618359
0.057671752 0.0010325109 0.047766153
0.062804334 0.0019845269 0.047605056
0.06754072 0.0033743344 0.047746386
0.070693001 0.004541507 0.047268938
0.022654086 0.0083135944 0.04747982
0.026663024 0.0061480789 0.047737557
0.031631015 0.0070654824 0.049999997
0.036300186 0.0081041306 0.049999997
0.043398205 0.0080467025 0.049999997
0.047674421 0.0076482329 0.050000004
0.052755445 0.0069620609 0.049999997
0.056686673 0.0074079125 0.050000001
0.0627179 0.007648922 0.050000001
0.06647186 0.0075127529 0.050000001
0.073192582 0.0063006729 0.047966175
0.0775491 0.0084337909 0.047566589
0.014722155 0.014749567 0.0477851
0.017340574 0.0123393 0.047487147
0.021428986 0.011494984 0.04949617
0.027357951 0.012221907 0.050000004
0.032616273 0.013144516 0.050000001
0.038159631 0.012947763 0.050000004
0.042477787 0.012300497 0.050000004
0.046919934 0.012786352 0.049999997
0.05224587 0.013795763 0.049999997
0.057238642 0.012198837 0.049999997
0.061776739 0.011704248 0.049999997
0.066654637 0.011970888 0.049999997
0.072200529 0.012467261 0.049999997
0.077980615 0.012239937 0.049186897
0.082593426 0.012370877 0.047551502
0.085220918 0.014687722 0.046709936
0.012303746 0.017481364 0.047855671
0.017892409 0.016826577 0.049999997
0.022582833 0.016765136 0.050000004
0.027768493 0.016608315 0.049999993
0.032433692 0.016868098 0.050000004
0.036754657 0.017565534 0.050000001
0.042714454 0.016890906 0.050000004
0.047595169 0.017074294 0.050000004
0.052847777 0.016873067 0.049999997
0.057589564 0.017569231 0.049999997
0.061868854 0.017232928 0.050000004
0.067059673 0.016878448 0.049999997
0.0727209 0.016748 0.050000001
0.076292954 0.016734608 0.049999997
0.082789138 0.016255464 0.049999997
0.087646984 0.017335897 0.047406066
0.0084340619 0.022530969 0.047530632
0.011733009 0.022663184 0.049043827
0.017864799 0.022513844 0.049999997
0.022226682 0.024250085 0.049999997
0.027373789 0.021971896 0.049999997
0.031504467 0.022651618 0.049999997
0.038717017 0.022423288 0.049999997
0.042342428 0.022866499 0.050000001
0.047303867 0.022537002 0.050000004
0.052394446 0.02311169 0.049999997
0.058254723 0.023287199 0.050000001
0.063156247 0.022063922 0.049999997
0.067207269 0.021982711 0.050000001
0.072570503 0.022445818 0.050000004
0.077477977 0.021408575 0.050000004
0.082597576 0.023039985 0.050000004
0.088107198 0.021677699 0.049737327
0.091625221 0.022706963 0.0476771
0.004607717 0.029436709 0.047823116
0.0059185117 0.02703209 0.047942083
0.012189659 0.028138945 0.049999997
0.018466933 0.026879186 0.049999997
0.02255144 0.027753556 0.050000001
0.027195161 0.02701004 0.049999997
0.032144889 0.028715074 0.049999997
0.039375361 0.02755646 0.049999997
0.043225542 0.026545143 0.049999997
0.048141457 0.026984466 0.050000004
0.051869143 0.027111683 0.050000004
0.05689026 0.028061315 0.049999997
0.063410014 0.028331978 0.049999997
0.067240715 0.027718568 0.050000004
0.072326303 0.026034679 0.049999997
0.07810346 0.026792729 0.049999997
0.081784032 0.026928481 0.049999997
0.087180026 0.027186759 0.050000001
0.093848474 0.026843313 0.047929853
0.09526509 0.02918658 0.047636982
0.0032081886 0.032774605 0.047453016
0.0071560531 0.030988896 0.049999997
0.013736743 0.031866375 0.049999997
0.017065279 0.033472624 0.049999997
0.022811946 0.031734753 0.049999997
0.027869279 0.032118313 0.049999997
0.0327233 0.032808252 0.049999997
0.038204167 0.032407027 0.050000004
0.041916627 0.032848723 0.050000004
0.047738157 0.033016656 0.050000004
0.052253474 0.032654624 0.050000004
0.058245253 0.032964546 0.049999997
0.061064024 0.033102579 0.049999997
0.067853577 0.032787398 0.050000004
0.071174502 0.03235589 0.049999997
0.076805592 0.031967964 0.050000001
0.082526192 0.03227105 0.049999997
0.088505745 0.032359429 0.049999997
0.092944257 0.03279591 0.049999997
0.096712865 0.032574084 0.047438744
0.0018082533 0.03767826 0.047525361
0.0070096646 0.036984041 0.050000004
0.012779848 0.037876844 0.049999997
0.01708835 0.036675885 0.049999997
0.023120126 0.038021512 0.049999997
0.027282331 0.037829753 0.049999997
0.032846052 0.036906436 0.050000004
0.03746517 0.038365319 0.050000004
0.043313522 0.036667928 0.049999997
0.047772799 0.036810804 0.050000004
0.052796677 0.037291687 0.049999997
0.058920607 0.037041906 0.049999997
0.062209461 0.037918445 0.050000001
0.067473046 0.037621599 0.050000004
0.072601393 0.038413096 0.050000004
0.077570848 0.03858589 0.050000004
0.082431436 0.038028747 0.050000001
0.087232821 0.036625944 0.049999997
0.092305437 0.036529593 0.050000001
0.098167256 0.037372794 0.047769483
0.00089567382 0.042508181 0.047816712
0.0083245356 0.04225469 0.050000001
0.012888845 0.043423641 0.050000001
0.018477814 0.042178478 0.049999997
0.020672403 0.04151148 0.049999997
0.028148875 0.041119918 0.049999997
0.032395449 0.043534726 0.050000001
0.037749909 0.042278405 0.050000001
0.042778306 0.042884566 0.050000004
0.047492053 0.042818073 0.049999997
0.052501928 0.041661009 0.050000001
0.057953149 0.0424405 0.049999997
0.061993703 0.043044455 0.050000004
0.067661554 0.042232592 0.050000004
0.071602091 0.042143025 0.050000001
0.076848745 0.043124564 0.049999997
0.082041256 0.042153057 0.050000001
0.086915568 0.041832265 0.050000004
0.092252642 0.042140648 0.049999997
0.099194698 0.042282313 0.047804285
0.00068015984 0.047167581 0.047510862
0.0081206048 0.047216035 0.050000004
0.013401289 0.047488175 0.050000004
0.016521081 0.047722071 0.050000001
0.022059236 0.047305539 0.050000004
0.026143121 0.048342504 0.049999993
0.031812649 0.047423854 0.050000001
0.037299283 0.048132945 0.049999997
0.043635096 0.04740423 0.050000004
0.047809258 0.047356118 0.050000004
0.052254979 0.047735721 0.049999997
0.057495601 0.047289364 0.049999993
0.064380698 0.046430454 0.049999997
0.067852758 0.047358036 0.050000004
0.071753785 0.047847264 0.050000001
0.078015782 0.046171699 0.049999997
0.082648911 0.046574712 0.049999997
0.086326301 0.047726151 0.049999997
0.092996255 0.047318406 0.050000001
0.099650614 0.047625218 0.04770213
0.00051994919 0.0525604 0.047961526
0.0075466437 0.052033462 0.050000004
0.013684117 0.051325168 0.049999997
0.017185321 0.052283388 0.050000004
0.023048818 0.0521679 0.050000004
0.026461393 0.052695058 0.050000001
0.032845661 0.052032862 0.050000001
0.03769058 0.05257028 0.050000004
0.041288923 0.053176127 0.049999993
0.048632473 0.051264297 0.049999993
0.051459774 0.052310973 0.049999997
0.057747055 0.05153352 0.049999993
0.062167849 0.052766383 0.050000004
0.067581572 0.052283458 0.050000001
0.072217986 0.05270211 0.049999997
0.077717833 0.051847138 0.049999997
0.082169734 0.052879404 0.049999997
0.08736784 0.053169996 0.049999993
0.093484804 0.050704427 0.049999997
0.099605739 0.052210875 0.047623795
0.0007158533 0.057377078 0.047419194
0.0084384689 0.057420194 0.050000001
0.012491709 0.057749849 0.049999997
0.017258713 0.057077728 0.050000004
0.023661286 0.057609644 0.049999997
0.027412049 0.0575452 0.049999997
0.032408062 0.058043383 0.049999993
0.037956368 0.05701502 0.050000004
0.042052988 0.056699146 0.049999997
0.046978295 0.058331411 0.049999993
0.052915286 0.058617856 0.049999997
0.056872133 0.058042064 0.049999997
0.062581211 0.057405852 0.049999993
0.067309603 0.057117287 0.050000004
0.072593391 0.057816494 0.049999997
0.077065781 0.057865929 0.050000004
0.081004269 0.058340408 0.049999997
0.087299012 0.057184339 0.049999997
0.092948325 0.057931069 0.049999997
0.099235468 0.057600573 0.04781238
0.0018740298 0.062764101 0.047577482
0.0073668491 0.062359069 0.049999997
0.012364143 0.063107565 0.050000001
0.016990419 0.062953427 0.050000001
0.022031641 0.062142193 0.049999997
0.027776299 0.062569104 0.050000001
0.032821685 0.062587842 0.050000004
0.036392655 0.063062221 0.049999993
0.042232346 0.062471546 0.049999997
0.047941934 0.062018484 0.049999997
0.052522577 0.062412445 0.050000001
0.057974499 0.062090628 0.050000004
0.062084571 0.062211283 0.050000004
0.067811467 0.062091511 0.049999997
0.072721526 0.062703528 0.049999993
0.077690512 0.062207639 0.049999997
0.082339585 0.062362075 0.049999997
0.087707207 0.063061662 0.049999997
0.094890475 0.060492158 0.049999997
0.098054975 0.062715657 0.047777947
0.0031332711 0.067104198 0.047750875
0.006976238 0.066270344 0.049999997
0.012972315 0.066883005 0.050000001
0.018251423 0.067236349 0.050000004
0.022228766 0.067481935 0.050000004
0.028086828 0.06818229 0.049999997
0.032936066 0.068111517 0.049999997
0.037448704 0.067488052 0.050000001
0.042619321 0.067733206 0.050000004
0.046851952 0.068831243 0.050000001
0.052623902 0.067552604 0.049999997
0.057143047 0.06783805 0.049999997
0.062191539 0.067941144 0.050000004
0.068236344 0.066949628 0.049999997
0.071605287 0.067922257 0.049999997
0.077795967 0.066761963 0.050000001
0.082985312 0.068021365 0.050000004
0.086549684 0.06754306 0.050000004
0.092156574 0.06819699 0.050000004
0.096557572 0.067647547 0.047762983
0.0046568052 0.070675209 0.047471352
0.0060668103 0.073311113 0.04771008
0.012681314 0.072621971 0.050000001
0.01843339 0.072382651 0.049999997
0.022323577 0.072038665 0.049999997
0.028234808 0.071974784 0.050000001
0.032286797 0.071571097 0.050000004
0.03747727 0.072909944 0.050000004
0.042643666 0.072964035 0.050000004
0.047173403 0.072449036 0.050000004
0.051257476 0.072106063 0.049999997
0.058049619 0.073226221 0.049999997
0.062410939 0.072040774 0.050000004
0.066802174 0.073376827 0.050000001
0.073073208 0.0722863 0.049999997
0.076823831 0.072330192 0.049999997
0.083179846 0.071438856 0.049999993
0.087937884 0.073429957 0.049999997
0.093909279 0.07318636 0.047727898
0.0953198 0.070702322 0.047569714
0.0083391163 0.077258252 0.04764276
0.012075721 0.077530712 0.04937613
0.018806485 0.079731017 0.049999997
0.023721365 0.078035288 0.049999997
0.027492553 0.076691516 0.049999997
0.032914076 0.077213049 0.049999997
0.03891141 0.077879146 0.049999997
0.04251425 0.076784916 0.050000004
0.046875145 0.077907473 0.050000004
0.052405767 0.076915339 0.049999993
0.058651637 0.077221557 0.049999997
0.062469136 0.077084109 0.050000001
0.067560911 0.07749439 0.050000001
0.072271839 0.077842705 0.050000004
0.078547657 0.07559748 0.049999997
0.082290128 0.077528514 0.049999993
0.087628819 0.078098349 0.049763784
0.091639049 0.077350914 0.047774144
0.012162282 0.082403183 0.047526978
0.017921658 0.082148902 0.050000001
0.023584688 0.082599416 0.049999997
0.02785553 0.082569115 0.050000001
0.031611182 0.082653895 0.049999997
0.036686275 0.082724549 0.049999997
0.042875081 0.082499348 0.050000004
0.047991592 0.082256898 0.050000001
0.051521342 0.082880899 0.049999993
0.057661451 0.083608724 0.049999997
0.063458517 0.083892748 0.049999997
0.068089306 0.082801059 0.050000001
0.073575012 0.082413822 0.050000001
0.077309228 0.083398193 0.050000001
0.081565537 0.082338095 0.049999997
0.087768562 0.082346216 0.047907319
0.014684577 0.085209608 0.04736086
0.017409626 0.08767134 0.047551583
0.021173967 0.088410519 0.049198244
0.027547279 0.088053919 0.049999997
0.03173307 0.087343 0.050000001
0.037506528 0.086568482 0.049999997
0.043888234 0.08722911 0.049999997
0.047659002 0.087937564 0.049999997
0.052697491 0.086842299 0.049999997
0.057434384 0.087736711 0.049999993
0.061544586 0.088001192 0.050000001
0.068238735 0.086399719 0.050000001
0.072397858 0.087869495 0.049999997
0.078752644 0.088262714 0.049284011
0.082537532 0.087728813 0.047516115
0.085231401 0.085300893 0.047916632
0.022842262 0.091789916 0.047772426
0.02670873 0.093772866 0.047919776
0.032031987 0.092055514 0.050000001
0.038968172 0.091710165 0.049999993
0.04192099 0.093140244 0.049999997
0.047908019 0.091856331 0.049999997
0.052543774 0.091626503 0.050000001
0.055990703 0.092430219 0.049999997
0.063182779 0.092233948 0.050000001
0.066497378 0.093196467 0.049999997
0.073295489 0.093912795 0.047872137
0.077537246 0.091513529 0.047738604
0.029271076 0.095439762 0.047592651
0.032790214 0.096676312 0.047684539
0.037199292 0.098125525 0.047307849
0.042456783 0.099119999 0.047807373
0.047621086 0.099671066 0.047362823
0.052486751 0.099474683 0.047576711
0.057338379 0.099084206 0.047773626
0.062645689 0.098222584 0.04734122
0.067621194 0.096614204 0.047238249
0.070776418 0.095414236 0.048045605
0.03288614 0.0039750696 0.050000004
0.03751608 0.0032971248 0.049999978
0.042395502 0.0026439033 0.049999971
0.047431652 0.0024530396 0.049999967
0.052419659 0.0026484376 0.049999971
0.057624489 0.0028977061 0.049999971
0.062072348 0.0034724148 0.049999978
0.066616222 0.0041207671 0.049999997
0.023524392 0.0088597126 0.050000008
0.027920265 0.0075256028 0.049999971
0.032396432 0.007352388 0.049999967
0.037088193 0.0075717433 0.049999986
0.04271391 0.007458216 0.049999967
0.047639012 0.0073831188 0.049999971
0.052577674 0.0074008638 0.049999971
0.057543382 0.0074489592 0.049999967
0.062511191 0.0072984505 0.049999975
0.067401409 0.0073343618 0.049999971
0.072280414 0.0078669414 0.049999971
0.076525509 0.0090269735 0.04999999
0.014929386 0.014718352 0.050000004
0.018182565 0.013350626 0.049999978
0.02256866 0.012605598 0.049999971
0.027641134 0.012599114 0.049999986
0.032319915 0.012560213 0.049999967
0.037534285 0.012305962 0.049999971
0.042606689 0.012119655 0.049999971
0.047565255 0.012501343 0.049999967
0.05238172 0.012380237 0.049999971
0.057360366 0.012516865 0.049999975
0.062403183 0.012660024 0.049999975
0.067317359 0.01238786 0.049999967
0.072338179 0.012543613 0.049999986
0.077520154 0.012501269 0.049999971
0.082478769 0.013541157 0.049999982
0.085182905 0.014913321 0.050000001
0.013097727 0.018514166 0.049999982
0.017083168 0.01781805 0.049999971
0.02259896 0.01737446 0.049999971
0.02788534 0.017616674 0.049999971
0.032703482 0.017583067 0.049999975
0.037444931 0.01750114 0.049999967
0.042422649 0.017481532 0.049999967
0.047235023 0.017620822 0.049999971
0.052318804 0.017411329 0.049999971
0.057651114 0.017478812 0.049999971
0.062664486 0.017273705 0.049999971
0.067387953 0.017771326 0.049999971
0.072587475 0.017688295 0.049999971
0.077558778 0.017625311 0.049999986
0.082701571 0.017468447 0.049999967
0.086878613 0.018246295 0.049999982
0.0089786481 0.023525001 0.050000008
0.012395973 0.022357821 0.049999971
0.017401176 0.022537602 0.049999971
0.022239679 0.022984689 0.049999971
0.027599191 0.022608262 0.049999986
0.032695793 0.022378149 0.049999967
0.037215419 0.022470057 0.049999971
0.042244639 0.022446768 0.049999971
0.047490515 0.022177977 0.049999967
0.052489445 0.022174293 0.049999971
0.057291176 0.022538284 0.049999967
0.062133711 0.022380851 0.049999967
0.067641601 0.02230419 0.049999975
0.07200215 0.022406507 0.049999982
0.077537999 0.022544833 0.049999971
0.082627021 0.022671403 0.049999967
0.087583207 0.022360774 0.049999986
0.090833671 0.023162128 0.050000004
0.004947376 0.029665427 0.050000001
0.0077519617 0.02750352 0.049999971
0.012303417 0.027654244 0.049999997
0.017715123 0.027359869 0.049999971
0.022492044 0.027606033 0.049999967
0.027361998 0.027603034 0.049999971
0.032314081 0.027250087 0.049999975
0.037544265 0.02782914 0.049999986
0.042613465 0.027759023 0.049999971
0.047721967 0.027559355 0.049999971
0.052365832 0.027749963 0.049999971
0.057533875 0.02746225 0.049999978
0.062350225 0.027711403 0.049999971
0.067444786 0.02758611 0.049999975
0.072549991 0.027681448 0.049999967
0.077593423 0.027429985 0.049999978
0.082365341 0.02769566 0.049999967
0.08760526 0.027300306 0.049999967
0.092196941 0.027495161 0.049999971
0.095361128 0.029479569 0.050000004
0.004068939 0.032903757 0.049999993
0.0073861359 0.032185502 0.049999971
0.012610569 0.032568768 0.050000008
0.017418044 0.032278359 0.049999993
0.022480469 0.032493975 0.049999978
0.027607458 0.03215589 0.049999967
0.032495346 0.032578729 0.049999967
0.037029028 0.032725297 0.049999971
0.042275157 0.032322109 0.049999971
0.047461916 0.032234579 0.049999971
0.052604456 0.032151904 0.049999971
0.057407733 0.032636922 0.049999986
0.06241522 0.032539964 0.049999967
0.067464024 0.03239014 0.049999971
0.072675839 0.032348339 0.049999971
0.077537276 0.032730095 0.049999971
0.082812838 0.032295268 0.049999967
0.087602109 0.032685667 0.049999971
0.092244476 0.032582555 0.049999967
0.095851891 0.032992251 0.050000008
0.0032766908 0.03803023 0.049999978
0.0076624569 0.037490651 0.049999971
0.012518804 0.037720021 0.049999971
0.01737215 0.037349313 0.049999975
0.022344122 0.037697572 0.049999971
0.02773031 0.037364148 0.049999971
0.032467719 0.037272498 0.049999975
0.037620325 0.037282277 0.049999982
0.042362392 0.037231937 0.049999967
0.047610614 0.037479244 0.049999971
0.052588146 0.037500795 0.049999971
0.057278235 0.037506845 0.049999971
0.062367354 0.037495486 0.049999967
0.06733232 0.03754444 0.049999967
0.072318688 0.037517 0.049999975
0.077830143 0.037382938 0.049999967
0.082671501 0.037362888 0.049999967
0.087782562 0.037317339 0.049999967
0.092441268 0.037469741 0.049999971
0.096460983 0.037626497 0.049999978
0.0024209502 0.042614002 0.049999971
0.0073861745 0.042589698 0.049999975
0.012789164 0.042514425 0.049999971
0.017634559 0.042434867 0.049999982
0.022976937 0.042105801 0.049999971
0.027358035 0.042400088 0.049999971
0.032345697 0.042399947 0.049999967
0.037633207 0.042805489 0.049999975
0.04240505 0.042570155 0.049999971
0.047508836 0.042501964 0.049999986
0.052471504 0.042498738 0.049999967
0.057350107 0.042741891 0.049999967
0.062220514 0.042575803 0.049999971
0.067686558 0.042665351 0.049999971
0.072857708 0.042744014 0.049999967
0.077411562 0.042526264 0.049999967
0.082457535 0.042224329 0.049999971
0.087347209 0.0425152 0.049999971
0.0927184 0.042396542 0.049999971
0.097185321 0.042321566 0.049999967
0.0025271408 0.047241595 0.049999971
0.0073216581 0.047356825 0.049999967
0.012048181 0.047290843 0.049999975
0.017921319 0.047354333 0.049999971
0.022421937 0.047537178 0.049999975
0.027362797 0.047581673 0.049999967
0.032345697 0.047665119 0.049999971
0.037663098 0.047316551 0.049999997
0.042678315 0.047569279 0.049999978
0.0474183 0.047340386 0.049999975
0.052449815 0.047701083 0.049999967
0.057488758 0.047705501 0.049999967
0.062313467 0.047184046 0.049999971
0.067687333 0.047601502 0.049999971
0.072768256 0.04780871 0.049999971
0.077522606 0.047489643 0.049999967
0.082340747 0.047763564 0.049999971
0.087574452 0.047322176 0.049999967
0.092524022 0.047392227 0.049999967
0.097252361 0.047559649 0.049999971
0.0026536083 0.052390862 0.049999971
0.0074511338 0.052216083 0.049999971
0.012501596 0.052590352 0.049999975
0.017774211 0.052800033 0.049999971
0.022430774 0.052497592 0.049999971
0.027524255 0.052441575 0.049999967
0.032437403 0.052350476 0.049999971
0.037491668 0.052509639 0.049999971
0.042772681 0.052490141 0.049999967
0.047605578 0.052512612 0.049999967
0.05231715 0.052547295 0.049999967
0.057580508 0.052268643 0.049999967
0.062408786 0.052554846 0.049999967
0.067069769 0.052242696 0.049999971
0.072406203 0.052301005 0.049999967
0.077569947 0.052590031 0.049999971
0.082568854 0.052386083 0.049999978
0.087681584 0.052839119 0.04999999
0.092378862 0.052565582 0.049999971
0.097225808 0.052585408 0.049999971
0.0026607125 0.057707135 0.049999971
0.0073815193 0.057388794 0.049999967
0.012568827 0.057583801 0.049999971
0.01767881 0.057626229 0.049999971
0.022534311 0.057651646 0.049999967
0.027637316 0.057406023 0.049999975
0.03271699 0.057525601 0.049999967
0.037597269 0.057553593 0.049999967
0.042440761 0.057517268 0.049999971
0.047322549 0.057489198 0.049999971
0.052692953 0.057488032 0.049999967
0.057350438 0.057542391 0.049999967
0.062193051 0.057550449 0.049999971
0.067653485 0.057308525 0.049999967
0.07272698 0.057445865 0.049999975
0.077506647 0.057194669 0.049999971
0.082651697 0.05729505 0.049999967
0.087595031 0.057473194 0.049999971
0.09292835 0.057276137 0.049999971
0.097080223 0.057401165 0.049999971
0.0035548136 0.062313102 0.049999978
0.0076253801 0.062545471 0.049999967
0.012619444 0.062464595 0.049999967
0.017498931 0.062484346 0.049999967
0.022606703 0.06249968 0.049999971
0.028007155 0.062461704 0.049999967
0.032401849 0.062362507 0.049999993
0.037571151 0.062210385 0.049999971
0.042951938 0.062034942 0.049999971
0.047410857 0.062260821 0.049999975
0.052465908 0.062242519 0.049999967
0.057638835 0.06252978 0.049999971
0.062632106 0.062740766 0.049999971
0.067607097 0.062465653 0.049999982
0.072522186 0.062683001 0.049999971
0.077311404 0.062643193 0.049999967
0.082514212 0.062548265 0.049999967
0.087533616 0.062263343 0.049999967
0.092344061 0.062458862 0.049999971
0.096523918 0.06312003 0.049999978
0.0037652571 0.066767596 0.050000008
0.00718757 0.067400426 0.049999971
0.012410564 0.067518272 0.049999967
0.017711472 0.067559093 0.049999971
0.022270553 0.067164637 0.049999971
0.027195316 0.067438893 0.049999971
0.032470312 0.067591272 0.049999967
0.037735336 0.067410968 0.049999967
0.042804599 0.067235671 0.049999967
0.047748819 0.067227915 0.049999978
0.052300207 0.067346044 0.049999975
0.057355601 0.067747578 0.049999975
0.062486872 0.067803174 0.049999967
0.067549482 0.06748613 0.049999975
0.072457314 0.067362621 0.049999967
0.077554666 0.067612372 0.049999971
0.082618773 0.067702353 0.049999971
0.087742791 0.067299224 0.049999971
0.092084438 0.06727761 0.049999971
0.09583962 0.067824923 0.050000008
0.00458164 0.070112333 0.050000001
0.0078179445 0.072234072 0.049999971
0.012608076 0.072532408 0.049999971
0.017436603 0.072654106 0.049999986
0.022854351 0.072790749 0.049999971
0.027512804 0.072341189 0.049999967
0.032576937 0.072624035 0.049999971
0.037444483 0.072405957 0.049999967
0.042327292 0.072476603 0.049999971
0.047452614 0.072485216 0.049999967
0.052627612 0.072775364 0.049999971
