# .PCD v0.7 - Point Cloud Data file format
VERSION 0.7
FIELDS x y z
SIZE 4 4 4
TYPE F F F
COUNT 1 1 1
WIDTH 1336
HEIGHT 1
VIEWPOINT 0 0 0 1 0 0 0
POINTS 1336
DATA ascii
0.0038655938 0.018495498 0.027119294
0.0054721963 0.015897652 0.027581936
0.063323185 0.017173063 0.027495561
0.0021895219 0.022613171 0.027619263
0.064933144 0.020105878 0.028931312
0.065780029 0.02252613 0.027885841
0.00074212003 0.027737044 0.027564343
0.067232214 0.027518999 0.027665051
0.00022329163 0.032148894 0.027323892
0.067817569 0.03264549 0.027572848
0.00038842164 0.037447322 0.027325615
0.067618623 0.03738486 0.027463704
0.0013037506 0.042716738 0.027160943
0.066755757 0.042502102 0.027307298
0.0030722758 0.04775019 0.027493751
0.064542174 0.048783474 0.027939266
0.065519102 0.046219561 0.027823295
0.0045393603 0.050617758 0.027935579
0.0061857961 0.053238027 0.027332144
0.062275793 0.052503433 0.027584804
0.0087361373 0.056516703 0.027853057
0.011041715 0.058822647 0.027984403
0.057715636 0.058065284 0.027387455
0.060314938 0.055451062 0.027437907
0.013502796 0.060991656 0.027367134
0.017171983 0.063316494 0.02704338
0.020125519 0.06494002 0.027671978
0.048776284 0.064534977 0.027158553
0.052692775 0.062156808 0.027609546
0.055348739 0.060420595 0.027551917
0.022465678 0.065758877 0.02758594
0.027370352 0.067183398 0.027383575
0.032478895 0.067805707 0.027322596
0.037921548 0.067558147 0.027564492
0.042404063 0.066779554 0.02786706
0.046103116 0.065559842 0.027530763
0.018529329 0.0038597898 0.033007476
0.022013078 0.0023995028 0.03242049
0.027511513 0.00078149087 0.032783583
0.032236703 0.00021240057 0.032635078
0.037828047 0.00043131853 0.032548606
0.042412709 0.0012089241 0.032639243
0.047685113 0.0030583735 0.032242011
0.05073991 0.0046161157 0.032542553
0.01249141 0.00790295 0.032482877
0.016071482 0.0053629712 0.032397881
0.053029843 0.006054969 0.032516371
0.056679409 0.0088996524 0.032600269
0.0079379156 0.012442852 0.032525498
0.010044155 0.010174925 0.031122835
0.058930147 0.011149222 0.032586165
0.060984738 0.013496796 0.032859173
0.0039207293 0.018409893 0.032665551
0.0055014151 0.015851153 0.032648232
0.063372783 0.017258139 0.032652758
0.0022131482 0.022545647 0.032355793
0.064941235 0.020129004 0.03202704
0.065895058 0.022854893 0.032510139
0.00082076417 0.027290836 0.032814026
0.067202568 0.027456362 0.032518245
0.00018515067 0.0326069 0.032589875
0.067799769 0.032423999 0.03301039
0.00039225258 0.037481323 0.032342736
0.067602277 0.037530031 0.032527626
0.0012059634 0.042402528 0.03232659
0.066815369 0.042374697 0.032599814
0.0029612787 0.047449887 0.032424379
0.064526089 0.048855022 0.032102533
0.065437093 0.046453908 0.032276474
0.0046930695 0.050862387 0.03251981
0.0062308563 0.053309754 0.032962408
0.062446464 0.0522318 0.032671448
0.0088158399 0.056596763 0.032233745
0.01109306 0.058873981 0.032163523
0.057785816 0.057995092 0.032475475
0.060380884 0.055389713 0.032451767
0.013793129 0.061188653 0.032762349
0.017341999 0.063419886 0.032451987
0.020124435 0.06493964 0.033417478
0.048899915 0.064470097 0.032208107
0.052791543 0.062094763 0.032532088
0.055443048 0.06032946 0.032629274
0.022725727 0.065849856 0.032610483
0.027687255 0.067263752 0.03235973
0.032342806 0.067798413 0.032231685
0.037469789 0.067609057 0.032510865
0.042678095 0.066716179 0.032345895
0.046579346 0.065393209 0.032489561
0.018432399 0.0039055909 0.037332546
0.022253295 0.0023154479 0.037345931
0.027429631 0.00079511694 0.037525918
0.032326598 0.00020827529 0.037872676
0.037526313 0.00039732098 0.037477527
0.042349562 0.0011973932 0.037332118
0.047070146 0.0028021908 0.037522051
0.05070826 0.0045962268 0.037678804
0.012547066 0.0078467019 0.037577819
0.015822865 0.005519188 0.037414685
0.052878488 0.0059598717 0.037631981
0.056323908 0.0085447887 0.037331026
0.0078577427 0.012551377 0.037499439
0.010129565 0.010089516 0.036976125
0.058878027 0.011097111 0.037429418
0.060988341 0.013482604 0.037310913
0.0038830044 0.018466506 0.037340805
0.0055187833 0.01582351 0.037696861
0.063567862 0.017578324 0.037498929
0.0021331683 0.022774221 0.037558585
0.064932324 0.020103527 0.037571281
0.06573502 0.022397453 0.037349004
0.00078162801 0.027393093 0.037194137
0.067188621 0.027352378 0.037481371
0.00019578487 0.032478828 0.037400868
0.067820005 0.032553121 0.037469745
0.00040329187 0.037579298 0.037292905
0.067592852 0.037613694 0.037553638
0.001276919 0.042646855 0.037539467
0.06679289 0.042404972 0.037794791
0.0029069055 0.047355376 0.037511785
0.064552069 0.048757717 0.037573766
0.065423518 0.046492688 0.03747154
0.0044799075 0.050523132 0.037357911
0.006201406 0.053262886 0.037498794
0.06206717 0.052835453 0.037336316
0.0087235002 0.056503817 0.037384156
0.01110764 0.058888566 0.037725449
0.057824314 0.057956629 0.037527416
0.060366865 0.055409614 0.037416119
0.013430337 0.060941491 0.037832767
0.017444247 0.063491464 0.037609875
0.020189146 0.064962275 0.037485104
0.048777893 0.064532459 0.037163604
0.052379213 0.062353849 0.037197772
0.05538366 0.060388606 0.037413768
0.022585964 0.065800965 0.037542947
0.027755 0.067244425 0.037561182
0.032499339 0.067810595 0.037321419
0.037650522 0.067588687 0.037463211
0.042488709 0.06677147 0.037329149
0.046234455 0.065513887 0.037161384
0.018370818 0.0039357143 0.042657264
0.022570429 0.0022044783 0.042513836
0.027675893 0.00074818719 0.042269945
0.032334976 0.00020629258 0.042180885
0.037227165 0.00036361537 0.042726275
0.042543713 0.0012542771 0.04260942
0.047806691 0.0030904901 0.042832561
0.050544817 0.0044935313 0.041861258
0.012392306 0.0079668052 0.042723667
0.015933426 0.0054497183 0.04248612
0.053069443 0.0060798563 0.042515986
0.056445047 0.0086652488 0.042352464
0.0076457695 0.012785376 0.0425504
0.010082331 0.010136751 0.042822342
0.059076671 0.011295752 0.042562313
0.061067659 0.013615618 0.043106578
0.0040745069 0.018153399 0.042672459
0.0055486751 0.015775934 0.042199906
0.063310832 0.017154409 0.042597879
0.0022594475 0.022413332 0.042395096
0.064936958 0.020116784 0.042830031
0.065821618 0.022644948 0.042484563
0.00069200608 0.027952921 0.042384662
0.067227259 0.027536852 0.042669099
0.00018924485 0.032455593 0.042043127
0.067785583 0.032276224 0.042550448
0.00039016627 0.037462816 0.042368092
0.067601703 0.037535049 0.04242526
0.0012454636 0.042530559 0.042651933
0.06677825 0.042419512 0.042301133
0.0030071782 0.04758475 0.042256851
0.064589851 0.048701763 0.042817742
0.065525621 0.046200939 0.042325143
0.0045444472 0.050625842 0.042276464
0.0061255568 0.053142175 0.042495061
0.062180325 0.052655365 0.042365327
0.0085268747 0.056305889 0.042305794
0.011188085 0.058969002 0.042470507
0.057911836 0.057869095 0.042327579
0.060282152 0.055489566 0.04245073
0.013325238 0.060861636 0.042184871
0.017324485 0.063405193 0.042685919
0.020152392 0.064949423 0.04371224
0.048850082 0.064507283 0.042267103
0.052332375 0.062383287 0.042491063
0.055359848 0.060413055 0.041945808
0.022546796 0.065787256 0.04248751
0.02738676 0.067182094 0.042466376
0.032635644 0.067825392 0.042358357
0.037490398 0.067606732 0.04277686
0.042513546 0.066771097 0.042549383
0.046550747 0.065403208 0.042679653
0.018158654 0.0040655565 0.047861483
0.022299793 0.0022991775 0.047850862
0.027227504 0.00081734639 0.047301706
0.032490108 0.00018906283 0.04741117
0.037470501 0.00039103336 0.047492567
0.042498998 0.0012424916 0.047507826
0.048039239 0.0031788601 0.047408488
0.050725769 0.00460723 0.047389876
0.012466124 0.0079198591 0.047554996
0.015825061 0.0055178078 0.04742125
0.053367082 0.0062668766 0.047147349
0.05665011 0.00887061 0.047041215
0.0079871286 0.012393401 0.047563959
0.010119175 0.010099906 0.047079857
0.058810458 0.011029541 0.047614142
0.060986634 0.01348325 0.047700234
0.0040609147 0.018162386 0.04722698
0.0055407849 0.015788492 0.04707773
0.063693814 0.017787177 0.047175921
0.0022896612 0.022326985 0.047461569
0.064937651 0.020118752 0.048420262
0.065788977 0.022551695 0.047499049
0.00072604709 0.027764177 0.047563851
0.067145571 0.027163982 0.047507398
0.0001886135 0.032596286 0.047481727
0.06782788 0.032664374 0.04760104
0.00040948932 0.037634306 0.047645204
0.067599379 0.037555709 0.047711167
0.0011223269 0.042075414 0.047979236
0.06669689 0.042776614 0.047283724
0.0029505356 0.047432922 0.04774186
0.064487055 0.048888125 0.04760965
0.065470308 0.046359006 0.047378097
0.0045142435 0.050577782 0.047717158
0.006386098 0.053556826 0.047424413
0.062230352 0.052575745 0.047444295
0.0085822875 0.05635928 0.047537271
0.011038814 0.058819737 0.047316022
0.058012947 0.057767976 0.047437564
0.060377963 0.055392914 0.047792546
0.013882816 0.06124942 0.047704637
0.017507162 0.06351842 0.047545686
0.020143544 0.064946324 0.047338028
0.048838876 0.064502493 0.047617707
0.052315388 0.062393948 0.047596134
0.055419896 0.060355701 0.047107141
0.022609731 0.065809265 0.04726563
0.027687464 0.067256831 0.047220744
0.032487772 0.067803733 0.047334768
0.037280731 0.067630358 0.047625013
0.042248167 0.066848047 0.047310833
0.046583571 0.065391727 0.047475621
0.018432479 0.0039039063 0.052478023
0.022799993 0.0021241503 0.052158423
0.027798146 0.00073155935 0.052509554
0.032477487 0.00020441294 0.052754436
0.037307512 0.00037267004 0.052284073
0.042144176 0.0011226699 0.052567117
0.047586828 0.0030071337 0.05273205
0.050602268 0.0045296326 0.052245479
0.012603125 0.0078120953 0.052364137
0.015739359 0.0055716573 0.052463003
0.053263169 0.0062015834 0.052277278
0.056393392 0.0086153876 0.052515671
0.0081325211 0.01221498 0.052482381
0.010085898 0.010133184 0.052282084
0.059075594 0.011294673 0.052630942
0.061036568 0.013560112 0.052195311
0.0038506715 0.0185226 0.0526761
0.0054524955 0.015929004 0.052753072
0.063730754 0.017840153 0.052713547
0.0022959681 0.022308968 0.052781008
0.064964019 0.020194085 0.051729977
0.065652356 0.022161262 0.052545391
0.00079598202 0.027418135 0.052211858
0.067178741 0.027322961 0.052604724
0.00019839572 0.032561027 0.05270933
0.067815952 0.03257817 0.052876078
0.00040987373 0.037637729 0.052418042
0.067616865 0.037400387 0.052817244
0.0012565389 0.042531498 0.052868374
0.066744886 0.042545311 0.052396782
0.0030710569 0.047752827 0.052765831
0.064413965 0.049026888 0.052623276
0.065489292 0.04630474 0.052497979
0.0045914501 0.050700657 0.052344978
0.0060885269 0.053083241 0.05241942
0.062501468 0.052144278 0.052437648
0.0086308112 0.056410711 0.052731514
0.010823904 0.058604833 0.052476611
0.057836581 0.05794435 0.052584428
0.060327511 0.055446446 0.052390862
0.013715886 0.061143618 0.052397512
0.017565763 0.063557357 0.052289858
0.020155204 0.064950407 0.051360596
0.048811294 0.064529121 0.052211016
0.052577209 0.06222944 0.052598447
0.055398576 0.060374934 0.053363331
0.022845954 0.065891936 0.052631546
0.027630212 0.067245543 0.052291624
0.032690104 0.067823216 0.052497316
0.037723988 0.067580402 0.052421372
0.04260534 0.066729844 0.052742634
0.046254173 0.06550698 0.052800044
0.018236049 0.0040270723 0.057483491
0.022417173 0.0022581064 0.057601817
0.027421046 0.00079895678 0.057493929
0.032357015 0.00021267032 0.057876181
0.037764054 0.00042410818 0.057646938
0.042308159 0.0011815402 0.057346039
0.047759075 0.0030819483 0.057494521
0.050702062 0.004592333 0.056745403
0.01258405 0.0078236582 0.057552367
0.01599348 0.0054119853 0.057165392
0.053144116 0.0061267824 0.057615135
0.056395944 0.0086156754 0.057265595
0.007957099 0.012417275 0.057336517
0.010097365 0.010121715 0.05701068
0.058906078 0.011125148 0.057528563
0.06112843 0.013693142 0.057720121
0.0040509882 0.018172149 0.057817638
0.0056130923 0.015673416 0.057547137
0.063571915 0.017585313 0.057369672
0.0022248877 0.022512101 0.057488121
0.064922206 0.020074613 0.057094179
0.065774739 0.022510977 0.057407551
0.00081535801 0.027208643 0.057335366
0.067169927 0.027234973 0.057787426
0.00019348474 0.032649729 0.057506852
0.067826875 0.032736968 0.057648689
0.00038141423 0.037385132 0.057249181
0.067599237 0.037557073 0.057586137
0.0012364278 0.042515714 0.057608545
0.066733181 0.042541653 0.057480894
0.0029920756 0.047550637 0.057379339
0.064474545 0.048889264 0.057956811
0.065394551 0.046575457 0.056970321
0.0045976643 0.050710544 0.057325203
0.0063750795 0.053539284 0.057684708
0.062049765 0.052863162 0.057685863
0.0087339738 0.05651477 0.05762627
0.010903702 0.058684628 0.057237867
0.057848759 0.057932176 0.057201106
0.060434632 0.055337228 0.057787325
0.01343664 0.060956221 0.057439055
0.017261948 0.063369185 0.057434797
0.020180199 0.064959154 0.056487579
0.048978969 0.064437784 0.057567742
0.052440777 0.062315162 0.057190578
0.055387489 0.06038525 0.057747927
0.022635344 0.065818235 0.057354555
0.027810672 0.067275524 0.057354771
0.03250578 0.0678031 0.057421453
0.037701841 0.067582898 0.057408571
0.04243559 0.066800974 0.057579108
0.046332687 0.065479517 0.057723053
0.01817232 0.0040529943 0.062812738
0.02254658 0.0022128222 0.062486488
0.027208759 0.00083316618 0.062988326
0.032477271 0.00019062318 0.062383361
0.037730996 0.0004203837 0.06240315
0.042726148 0.0013121555 0.062479723
0.047158442 0.0028446312 0.062648319
0.050643772 0.0045557083 0.062980473
0.012364852 0.0079950467 0.062390432
0.01556081 0.00568385 0.062239807
0.053154457 0.0061332821 0.062242456
0.056282956 0.008504211 0.062758766
0.0076409895 0.012794563 0.062325671
0.010145453 0.010073628 0.060803007
0.058863014 0.011082084 0.062597357
0.060980566 0.013492471 0.062878266
0.0039764955 0.018334869 0.062540129
0.0055343457 0.015798738 0.062161282
0.063531086 0.017516237 0.062548846
0.0022019329 0.022577709 0.062560417
0.06496983 0.020210726 0.062887318
0.06582167 0.022645159 0.062415347
0.00081860623 0.027195403 0.062761247
0.067234963 0.027665345 0.062339675
0.00021452449 0.032196537 0.06234904
0.067844175 0.032869589 0.062430304
0.00039674077 0.037521165 0.062397193
0.067589454 0.037643619 0.062805437
0.0012469295 0.042502403 0.062618874
0.066810615 0.042324618 0.0625889
0.0030236922 0.047624987 0.062694006
0.064447783 0.048965592 0.062348556
0.065510027 0.046245478 0.062454641
0.0045396164 0.050618168 0.062591679
0.0061422889 0.0531688 0.062257271
0.062199343 0.052625097 0.062616304
0.0087057697 0.056486689 0.062539123
0.010906516 0.058687441 0.062535413
0.058103427 0.057677515 0.062589511
0.060324237 0.055446286 0.062280137
0.013458974 0.060962081 0.062533423
0.017564196 0.063559674 0.062297333
0.020179071 0.064958759 0.06212033
0.048932519 0.064459503 0.062785923
0.052627832 0.062197622 0.062593475
0.055430204 0.060344245 0.062622912
0.02255076 0.065788649 0.062643282
0.027392145 0.067208461 0.062420003
0.032376204 0.067801446 0.062480364
0.03767084 0.0675864 0.062501989
0.042413913 0.066790901 0.062571719
0.046202146 0.065525196 0.062289417
0.018304858 0.0039755991 0.067405127
0.022475839 0.0022375756 0.067738466
0.027703896 0.0007526463 0.067327753
0.032776587 0.00017006761 0.067903168
0.037500408 0.00039440318 0.067249104
0.042202834 0.0011406705 0.067442365
0.047638532 0.0030232116 0.06764289
0.05070743 0.004595709 0.066674381
0.012648578 0.0077755894 0.067533582
0.015924407 0.005455384 0.067428783
0.053365726 0.0062660272 0.067490488
0.056374464 0.0085935332 0.067355745
0.0079631312 0.012431642 0.067553513
0.010025687 0.010193394 0.069773644
0.058649462 0.010868542 0.067750514
0.060948908 0.013426546 0.067698881
0.0040798169 0.018131949 0.067364708
0.0054443711 0.015941933 0.067414306
0.063603267 0.017647069 0.067657247
0.0022592333 0.02241395 0.067499876
0.064966545 0.02020134 0.065644756
0.065753423 0.022450082 0.067290314
0.00076112105 0.027678924 0.067471787
0.067268729 0.027804883 0.067467086
0.00019047293 0.032559041 0.067624882
0.067804754 0.032534286 0.06732475
0.00036426762 0.03723295 0.067627557
0.067587286 0.037662949 0.067592844
0.0011117955 0.042081509 0.067740485
0.066748269 0.042563703 0.067514695
0.0029695053 0.047515444 0.067385279
0.064459607 0.048930004 0.067197517
0.065496899 0.046283033 0.067201674
0.004660598 0.050810695 0.067580029
0.0061412309 0.053167127 0.067709759
0.062314223 0.052442268 0.067319952
0.0086746207 0.056452807 0.067502744
0.01107852 0.058859441 0.067448236
0.057732426 0.058048509 0.067502789
0.060382605 0.055390727 0.068667941
0.013715207 0.061133258 0.067593068
0.017371101 0.06344413 0.067808844
0.020152332 0.064949401 0.067505069
0.048750751 0.06455595 0.067761414
0.052603573 0.062212873 0.067536831
0.055427179 0.060353756 0.068341248
0.022617744 0.065812081 0.067616232
0.027185641 0.067155935 0.067343898
0.032467376 0.067807496 0.067636959
0.037510023 0.067604527 0.067474872
0.042714566 0.06669803 0.067685887
0.046276402 0.065499209 0.067702904
0.018180259 0.0040454804 0.072545521
0.022557134 0.0022091316 0.072192788
0.02757827 0.00076712889 0.072487861
0.032428112 0.00020539504 0.072791956
0.037353139 0.0003778098 0.07267949
0.042284857 0.00116667 0.072838031
0.047514688 0.0029740683 0.072546877
0.050575748 0.0045129643 0.072852336
0.012552061 0.0078269634 0.072584994
0.015756886 0.0055606449 0.072638087
0.053323947 0.0062397742 0.072174408
0.056233577 0.0084538981 0.072404183
0.0079648942 0.012441415 0.072692297
0.010191886 0.010027196 0.070523776
0.059060443 0.011279529 0.072462544
0.061005384 0.013515155 0.072379313
0.0039621769 0.01834867 0.072315156
0.0055425642 0.015785661 0.072022416
0.063437968 0.01737234 0.07238739
0.0022246819 0.022512687 0.072250679
0.064946763 0.02014479 0.07276164
0.065774389 0.02250999 0.072277948
0.00077679654 0.027541786 0.072416343
0.067233182 0.027593933 0.072262168
0.00019087872 0.032514878 0.072535105
0.067782111 0.032219488 0.07259836
0.00040480876 0.037592769 0.072671056
0.0676319 0.037267085 0.072814144
0.0012846272 0.042644504 0.072603285
0.066837557 0.042231176 0.072514549
0.0029426797 0.047443394 0.072631173
0.064421602 0.049006108 0.07254155
0.065455221 0.04640213 0.072976679
0.0046226662 0.050750341 0.073063657
0.0062045115 0.053267833 0.072276205
0.062247761 0.052548066 0.072470352
0.0085711833 0.056351073 0.072979897
0.011132084 0.058913011 0.072794542
0.058046181 0.057734735 0.072537906
0.060337868 0.055436686 0.072428174
0.013583316 0.06105528 0.072547607
0.017622702 0.063596085 0.072572924
0.020115811 0.064936616 0.071324334
0.048874013 0.064505517 0.072465733
0.052934933 0.062004667 0.072818711
0.055485364 0.060285538 0.072219737
0.022381319 0.065729357 0.072253726
0.027417986 0.067213513 0.072385341
0.032461472 0.067814708 0.07259924
0.037425164 0.067614079 0.072533175
0.042565729 0.06674514 0.072759159
0.046584997 0.065391228 0.072484896
0.018583091 0.003811727 0.077319622
0.022506692 0.0022267806 0.077532835
0.027150797 0.00082719798 0.077362224
0.032423489 0.0001975091 0.077681728
0.037518926 0.00039648928 0.077477954
0.042431805 0.0012114188 0.077616528
0.047208034 0.0028681105 0.077453867
0.050759491 0.0046284194 0.077523738
0.012412233 0.0079443371 0.077567875
0.015776601 0.0055482569 0.077695616
0.053357702 0.0062609799 0.077475756
0.056450173 0.0086709568 0.07755392
0.0079194764 0.012471815 0.077538654
0.010032512 0.010186569 0.078579612
0.058881544 0.011100625 0.077826239
0.060953248 0.01344208 0.077500202
0.0041036913 0.01811539 0.077347472
0.0056182849 0.015665157 0.077369213
0.063685879 0.0177623 0.077484161
0.0022303178 0.022496585 0.077697694
0.064942807 0.020133492 0.075730823
0.065821111 0.022643527 0.07753107
0.00076057093 0.027623527 0.077873349
0.067253761 0.027754914 0.077514008
0.00022505781 0.032126687 0.077658877
0.067803189 0.032412056 0.077575453
0.00039547446 0.037509926 0.077496544
0.067615397 0.037413485 0.077602535
0.0012117041 0.042440448 0.077453047
0.066821419 0.042301528 0.077481844
0.0028861577 0.047272112 0.077611603
0.064424098 0.049020328 0.07766822
0.065425389 0.046487395 0.076975726
0.0045891432 0.050696988 0.077345625
0.0061099585 0.053117346 0.077655017
0.062266767 0.052517816 0.077220842
0.0087324409 0.05651335 0.077753238
0.011159204 0.058940124 0.077297106
0.057912122 0.057868794 0.077308893
0.06034771 0.055423275 0.078045256
0.013689394 0.061113384 0.077369757
0.017394774 0.063457854 0.077371873
0.020189727 0.064962484 0.078850448
0.048751589 0.064546578 0.077494718
0.052604161 0.062212504 0.077239923
0.055451136 0.060319938 0.077716574
0.022804385 0.065877393 0.077211976
0.02747572 0.067222439 0.077561364
0.03242569 0.067803375 0.077409625
0.037547525 0.06760028 0.077187911
0.042664856 0.066708125 0.077612825
0.046431296 0.065445013 0.077432647
0.018291788 0.0039941748 0.082060009
0.022497769 0.0022299031 0.08259628
0.027249992 0.00083325041 0.082468018
0.032370023 0.00021202055 0.083064802
0.03743488 0.0003870193 0.082531601
0.042904977 0.0013410954 0.082435504
0.0475397 0.0029889154 0.082674704
0.050760321 0.0046289405 0.082234599
0.0127583 0.0076846089 0.082529217
0.015874801 0.0054865549 0.08270441
0.05311358 0.0061075897 0.08225666
0.056186926 0.0084109437 0.082165666
0.0079659829 0.012423263 0.083009891
0.010108716 0.010110365 0.083061494
0.058912475 0.011131551 0.08248245
0.061076801 0.013626611 0.082513735
0.003955334 0.018357748 0.08238887
0.0054155025 0.015987879 0.082477085
0.063502096 0.017473413 0.082652733
0.0022066627 0.022564188 0.082364574
0.064934142 0.020108745 0.082841277
0.065834336 0.022681341 0.082540467
0.00076964957 0.027556777 0.0824534
0.067207508 0.027458675 0.082213722
0.00020337381 0.032359403 0.082376279
0.06781695 0.032601319 0.082175143
0.00040951039 0.037634492 0.082206003
0.067640387 0.037191812 0.082414731
0.0012372017 0.042461693 0.082437605
0.066880561 0.042129841 0.082585938
0.0031212189 0.047890685 0.082326651
0.064541273 0.048788406 0.082813241
0.065500945 0.046271458 0.082272708
0.0046087108 0.05072812 0.08271838
0.0063046482 0.053427204 0.082507402
0.062375203 0.052345224 0.082300179
0.0087037012 0.05648464 0.082751207
0.011234823 0.059015743 0.082240075
0.058056105 0.05772483 0.082511216
0.060347952 0.055420816 0.082705006
0.013530996 0.06101276 0.082098693
0.017333491 0.063414447 0.082436696
0.020075362 0.064922467 0.082632869
0.048928913 0.064450458 0.082293011
0.052446943 0.062311303 0.082338944
0.055518325 0.060257565 0.082649685
0.022673391 0.065831557 0.082484342
0.027335078 0.067190163 0.08265157
0.032460995 0.067791611 0.08282093
0.037458558 0.067610316 0.082542993
0.042575195 0.066730157 0.082543485
0.046329003 0.065480806 0.082112715
0.01809342 0.0041036597 0.086982831
0.022625407 0.0021852409 0.087587081
0.027695457 0.00073904789 0.087483853
0.032752033 0.0001635162 0.087746762
0.037338812 0.00037619521 0.087837309
0.042592857 0.0012503148 0.087520197
0.047634102 0.0030320797 0.087707825
0.050692849 0.0045865383 0.087245539
0.012451344 0.0078938203 0.087432444
0.015902609 0.0054690819 0.087743573
0.053196225 0.0061595235 0.087676413
0.056692563 0.0089125047 0.087580487
0.0080331713 0.012310373 0.087498799
0.010109925 0.010109156 0.086372226
0.058926817 0.0111459 0.08794336
0.060958922 0.013459597 0.087416925
0.0041013043 0.018099353 0.087551422
0.0054564704 0.01592268 0.08716175
0.063498788 0.017452879 0.087628037
0.0021886402 0.022615694 0.087323882
0.06495849 0.020178314 0.087944649
0.065867163 0.02277516 0.087468959
0.00077192928 0.027541846 0.087440744
0.067239515 0.027620437 0.087377243
0.00018058589 0.032661553 0.087288603
0.067794621 0.032354787 0.087419204
0.00040896071 0.037629619 0.08759886
0.067566454 0.037847873 0.087385371
0.0012252067 0.042505153 0.087312885
0.066741258 0.042607527 0.087860823
0.0030145363 0.047621023 0.087744243
0.064579993 0.048705168 0.087747172
0.065464646 0.046375141 0.087523244
0.0045637796 0.05065662 0.08836586
0.0062682475 0.053369258 0.087796204
0.062272783 0.052508209 0.087665193
0.0088452315 0.056625195 0.087621421
0.011165157 0.058946081 0.087425828
0.058026057 0.057754863 0.087453872
0.060487647 0.055275589 0.087586537
0.013525647 0.061015032 0.087389179
0.017260786 0.063373573 0.087694176
0.04886169 0.06448938 0.087718204
0.052572113 0.062232636 0.087339215
0.055412397 0.06035896 0.087524652
0.022552643 0.065789305 0.087573528
0.027531901 0.067208931 0.087227352
0.032583453 0.067809507 0.087555036
0.037440557 0.067612357 0.087463416
0.042296737 0.066818565 0.087608524
0.046461202 0.065434553 0.087241679
0.0180039 0.0041576759 0.092331894
0.02252692 0.0022197028 0.092531249
0.027080031 0.00085638516 0.092606649
0.032363884 0.00020020561 0.092813283
0.037470464 0.00039102804 0.092460096
0.042371321 0.0011836953 0.09233214
0.04750606 0.0029709483 0.09276934
0.050621703 0.0045418413 0.092337653
0.012636259 0.0077661555 0.092412896
0.015844142 0.0055058189 0.093278028
0.053203039 0.0061638006 0.092383198
0.056328274 0.0085485484 0.092163861
0.0076382044 0.012787584 0.092626542
0.010109419 0.010109661 0.091438167
0.058876567 0.011095643 0.092414416
0.060981859 0.013470748 0.092112958
0.0039206138 0.018412314 0.092577495
0.0054858397 0.015875937 0.092626557
0.063618265 0.017679492 0.093009688
0.0021389516 0.022757694 0.092498071
0.064951085 0.020157151 0.091930464
0.065800332 0.022584094 0.092343278
0.00080434058 0.027467603 0.09236145
0.067264006 0.027700238 0.092118196
0.0002243498 0.032198604 0.092580922
0.067837469 0.032800887 0.09244094
0.00040296023 0.037576355 0.092893712
0.06759344 0.037608318 0.092553534
0.0012760404 0.042633068 0.092443034
0.06674578 0.042568445 0.092368677
0.0031349079 0.047917023 0.092654936
0.064473651 0.04891897 0.092505544
0.06550625 0.0462563 0.09227439
0.0045717969 0.05066938 0.092925131
0.0061390148 0.053163584 0.09256079
0.062347461 0.052389383 0.092655957
0.0086095938 0.056387886 0.092534982
0.011012569 0.0587935 0.092348702
0.057855614 0.057925303 0.09274105
0.060353789 0.055424608 0.092504688
0.013354019 0.060886897 0.092638776
0.017603369 0.063591287 0.092290431
0.020133369 0.064942762 0.092525937
0.049003627 0.064437836 0.09286996
0.052685469 0.062161405 0.092653789
0.055499118 0.060281809 0.091733925
0.022388596 0.065731898 0.092418961
0.027566817 0.067231812 0.092739798
0.032422006 0.067808822 0.0923618
0.037157107 0.067644276 0.092273116
0.042513151 0.066770867 0.092427321
0.046499658 0.06542109 0.092520081
0.018200809 0.0040396415 0.097295731
0.022420874 0.0022568095 0.097789347
0.027362784 0.00080160477 0.097133718
0.032377478 0.00020757441 0.097459488
0.03756611 0.00040180632 0.097368345
0.042035323 0.0010843183 0.097472578
0.047327325 0.0029045264 0.097467951
0.050768115 0.0046338355 0.097023189
0.012708771 0.0077084638 0.097582646
0.015802486 0.0055319946 0.097107738
0.053060435 0.006074205 0.097723782
0.056098092 0.0083228052 0.097533576
0.00811911 0.012234502 0.097793661
0.010129614 0.010089467 0.098105714
0.05893122 0.011150303 0.097568169
0.061170995 0.013768543 0.097368054
0.0040047937 0.018257843 0.097710252
0.0054051601 0.016004339 0.097458862
0.063374415 0.017268302 0.097435571
0.0021488839 0.022729309 0.097662695
0.064960778 0.020184835 0.097799964
0.065717801 0.022348301 0.097330108
0.00078209239 0.027376343 0.097616561
0.067221977 0.027512977 0.097319916
0.00018307572 0.032573491 0.097287402
0.067833833 0.032828856 0.097405337
0.00044288451 0.037930693 0.098081589
0.067601077 0.037540577 0.097776212
0.001241176 0.042551655 0.097676255
0.066680975 0.0427472 0.097306453
0.0027964148 0.047048964 0.097771421
0.064573303 0.048725761 0.097644381
0.065538101 0.046165284 0.097068399
0.004572717 0.05067084 0.097567052
0.0060309325 0.052991588 0.097813189
0.062129639 0.052736055 0.097644009
0.0086570298 0.056435287 0.097645506
0.010994298 0.058775224 0.097518116
0.057770383 0.058010541 0.097557873
0.060419586 0.055355158 0.097806282
0.013316495 0.060868472 0.097380266
0.017358428 0.063428186 0.097801775
0.020103669 0.064932369 0.095299289
0.049026955 0.064422622 0.097565033
0.052737977 0.06212844 0.097567953
0.055443592 0.060331643 0.096852221
0.02247897 0.065763511 0.097562253
0.027488045 0.067222722 0.097730815
0.032674797 0.067822441 0.097705401
0.037044678 0.067656957 0.097554378
0.042810682 0.066679284 0.097651854
0.046356715 0.065471105 0.097873546
0.018314034 0.0039759721 0.10235599
0.022236262 0.0023214086 0.10240366
0.027689509 0.00075877056 0.10237754
0.032674521 0.00017455469 0.1025314
0.037776522 0.00042551383 0.102555
0.04264627 0.0012943653 0.10254901
0.04762134 0.0030240389 0.10277816
0.050610796 0.0045349859 0.10271052
0.012395967 0.0079948222 0.10277602
0.015942914 0.0054437551 0.10274794
0.053327799 0.006242197 0.10218912
0.056294166 0.008515982 0.10266954
0.0079087531 0.012479232 0.10253455
0.010052733 0.010166348 0.10195692
0.058919471 0.01113855 0.10241148
0.060942594 0.013423026 0.10230689
0.0039481651 0.018367944 0.10290066
0.0055036573 0.015847582 0.10221273
0.063368827 0.017247174 0.10243564
0.0021809505 0.022637665 0.1025999
0.064956933 0.020173859 0.10313958
0.065753117 0.02244924 0.10221802
0.00083070324 0.027196584 0.10258219
0.067248352 0.027638486 0.10273985
0.00020041763 0.032432772 0.10251335
0.067827493 0.032678023 0.10234702
0.00039856872 0.037537381 0.10251332
0.067592591 0.037615813 0.10229611
0.0013796361 0.042968046 0.10247879
0.066718549 0.042672168 0.10248922
0.0029826835 0.047531225 0.10242175
0.064474769 0.048911396 0.10261001
0.06557133 0.046070296 0.10269452
0.0045357589 0.050612025 0.10253917
0.0059678801 0.052891228 0.10284217
0.062195312 0.05263155 0.10232893
0.0087120403 0.056491263 0.10240839
0.011065369 0.058846295 0.10250351
0.057576478 0.05820445 0.10243047
0.060360089 0.055408385 0.10208733
0.01357944 0.061033618 0.10215001
0.017393213 0.063462265 0.10263944
0.020130167 0.064941645 0.10309724
0.048926938 0.064460501 0.10249916
0.052543744 0.062250465 0.1027207
0.05530449 0.060462821 0.10166162
0.022975128 0.065937139 0.10248271
0.027313558 0.067194641 0.10268289
0.032510795 0.067818366 0.10233358
0.037381079 0.067619041 0.10252423
0.042492192 0.066766322 0.10215205
0.046343938 0.065475576 0.10266159
0.018278385 0.0040018619 0.10725988
0.022835035 0.0021118887 0.10793803
0.027486222 0.00076337933 0.10715372
0.032517556 0.00018900326 0.1075869
0.037527185 0.00039741924 0.10757032
0.042559125 0.0012462512 0.10722188
0.04753153 0.0029917764 0.10780306
0.050749023 0.0046218396 0.10774062
0.012384395 0.0079894299 0.10741889
0.015847174 0.0055039134 0.10769205
0.053258646 0.0061987424 0.10796534
0.056162413 0.0083882948 0.10804614
0.0080860173 0.012277214 0.10765502
0.010099309 0.010119773 0.10748553
0.058860127 0.011079198 0.10761144
0.061035931 0.01357733 0.10733514
0.0038937866 0.018458204 0.10775904
0.0054923142 0.015865637 0.1074468
0.063540839 0.017534299 0.1074724
0.0022264433 0.022507656 0.10739672
0.064939708 0.020124635 0.10660477
0.065825798 0.022656975 0.10756219
0.00078171666 0.027491406 0.10765333
0.067206286 0.027412672 0.10751419
0.00016997152 0.032671303 0.10741788
0.067799956 0.032334387 0.10751356
0.00038624011 0.037427969 0.1073637
0.067586169 0.037672896 0.10745745
0.00124756 0.042507224 0.10763048
0.066770427 0.042461365 0.10741495
0.003105144 0.04780652 0.10729779
0.064506665 0.04884018 0.10777599
0.065433294 0.046464771 0.10735666
0.0046221735 0.050749559 0.10687818
0.0062847459 0.053395525 0.10740656
0.062306933 0.052453887 0.10741395
0.0086211339 0.056396786 0.10801118
0.01106657 0.058847487 0.10753478
0.057800043 0.05798088 0.10746681
0.060493637 0.055267118 0.10828735
0.013783221 0.061166015 0.10762253
0.017218035 0.063351423 0.10731871
0.020281265 0.064994514 0.10837126
0.048877724 0.064491495 0.10744764
0.052144259 0.062501498 0.10733851
0.055438224 0.060330853 0.10724086
0.022348087 0.065717734 0.10758989
0.027641181 0.067224778 0.10757469
0.032866359 0.067846864 0.10776293
0.037559617 0.067598917 0.10755525
0.042570822 0.066744566 0.10719933
0.04643489 0.065443754 0.10777014
0.01828537 0.004000498 0.11263972
0.022512246 0.0022248365 0.11242428
0.027544085 0.00077255111 0.11232962
0.032464918 0.00019479082 0.11261158
0.037528269 0.00039754182 0.11234216
0.042064033 0.0011063667 0.11266356
0.047081932 0.0027996206 0.11240867
0.050600022 0.0045282156 0.11211103
0.01225892 0.0080954665 0.11271363
0.01564749 0.0056293849 0.11281128
0.053264752 0.0062025785 0.11249405
0.056367971 0.0085906694 0.11254903
0.0077875247 0.012599606 0.11243675
0.010124629 0.010094452 0.11176323
0.058925468 0.011144544 0.11287957
0.061035812 0.01356512 0.11276726
0.0039333133 0.01840733 0.11257514
0.0054304539 0.015964085 0.11263029
0.063732393 0.017848782 0.112413
0.0022099635 0.022554753 0.11214185
0.064961769 0.020187683 0.11242384
0.065819144 0.022637933 0.11239129
0.00074621808 0.027660074 0.11249086
0.067256473 0.02776585 0.11263577
0.00021305488 0.032249406 0.11230644
0.067818955 0.03264128 0.11309366
0.00036598975 0.037248231 0.11263814
0.067621604 0.037358437 0.11224515
0.0012553717 0.042570248 0.11203789
0.06681183 0.042339299 0.11237916
0.0029796988 0.047526848 0.11201808
0.064425983 0.04899697 0.11235971
0.065543525 0.046149764 0.11246213
0.0046041841 0.050720923 0.11171448
0.0060390611 0.053004518 0.11273044
0.062359769 0.052369788 0.11219352
0.008746882 0.056523699 0.11288849
0.011170588 0.058951505 0.11239827
0.058008187 0.057772771 0.11250528
0.06038437 0.055386595 0.11225726
0.01352031 0.061008908 0.11240166
0.017123569 0.063290946 0.1123452
0.020217853 0.064972326 0.11304723
0.048816577 0.064508982 0.11218162
0.052224439 0.062451102 0.11263935
0.055348888 0.060427684 0.11271048
0.022771683 0.065865934 0.11242605
0.027472503 0.067218497 0.11265848
0.032493852 0.067806736 0.11237434
0.037417669 0.06761492 0.11237004
0.042556241 0.06673605 0.11239218
0.046334237 0.065478981 0.11236843
0.018464621 0.0038800226 0.11738311
0.022388263 0.0022682201 0.11699771
0.027473882 0.00077727705 0.11740079
0.032313198 0.0002096816 0.1170936
0.037595231 0.00040508711 0.11734509
0.042656962 0.0012686113 0.11739711
0.047364492 0.0029260723 0.11766628
0.050621595 0.004541772 0.11742256
0.012540992 0.0078775389 0.11777421
0.015821727 0.0055199051 0.11725966
0.053198408 0.0061608981 0.11718085
0.056419715 0.008641229 0.11789969
0.0079086917 0.012439872 0.11754171
0.010092316 0.010126764 0.11753257
0.058812607 0.011031672 0.117286
0.061027817 0.013560927 0.11726332
0.0039686114 0.018334374 0.11746053
0.0054870159 0.015874067 0.11732411
0.063479133 0.017438969 0.11757033
0.0022830793 0.0223458 0.11758768
0.064940266 0.020126244 0.11823136
0.065855339 0.022741377 0.11715575
0.00078549277 0.02746024 0.11754268
0.067190297 0.027401451 0.11762787
0.00017947075 0.032483488 0.11728527
0.067806251 0.032439895 0.1172192
0.00041691097 0.037700184 0.1174954
0.067599557 0.037554052 0.11739724
0.0012495718 0.042589575 0.11719138
0.066752136 0.042594664 0.11759703
0.0029493929 0.047437146 0.11715458
0.064464025 0.048935689 0.11729909
0.06538941 0.04659019 0.11695243
0.004637551 0.050774023 0.11776548
0.0061377939 0.053161647 0.11748002
0.062179461 0.052656755 0.11779457
0.008593969 0.05637344 0.1179073
0.011208887 0.058989808 0.11805966
0.05803122 0.057749704 0.11763401
0.060440019 0.055326745 0.11737823
0.01348214 0.06096781 0.1172587
0.017311521 0.063403405 0.11753915
0.02019009 0.064962611 0.11622859
0.048951618 0.064450942 0.11796609
0.052323874 0.062388614 0.1174385
0.055426713 0.060349688 0.11804035
0.022804055 0.065877266 0.11709174
0.027573334 0.067239255 0.11720029
0.03254066 0.067809619 0.11765488
0.037502326 0.067605391 0.11742437
0.042485803 0.066754438 0.11754528
0.046344027 0.065475553 0.11755767
0.018384201 0.0039329831 0.12229516
0.022835357 0.0021117758 0.12241327
0.027647898 0.00076576468 0.1226093
0.032560147 0.00019708433 0.12245857
0.037224434 0.00036330818 0.12242483
0.042646542 0.0012740428 0.12260845
0.047686759 0.0030410816 0.12244372
0.050612818 0.0045362585 0.122619
0.012402935 0.007988018 0.12242059
0.016089665 0.0053515462 0.12228745
0.053234685 0.0061836801 0.12209447
0.056470476 0.0086919311 0.12289076
0.0076460466 0.012765338 0.12276028
0.010058035 0.010161046 0.12306593
0.059004918 0.011223987 0.12255549
0.061100002 0.013654518 0.12205093
0.0040101781 0.018245928 0.12275019
0.0055044862 0.01584626 0.12205069
0.063476615 0.01743141 0.12204685
0.0021621727 0.022691332 0.12277681
0.064941958 0.020131061 0.12123727
0.065852582 0.022733497 0.12259192
0.00076143094 0.027589075 0.12225331
0.067192882 0.027353728 0.12263999
0.00023348072 0.032091092 0.1223833
0.067852296 0.032905359 0.12251142
0.00038822851 0.037445612 0.122879
0.06760525 0.037503522 0.12239992
0.0012793242 0.04260486 0.12237357
0.066775903 0.04243236 0.12229284
0.0029441209 0.047437124 0.12248939
0.064433858 0.048981581 0.12266725
0.065453865 0.046405986 0.12225678
0.0046615829 0.050812267 0.12279335
0.006164744 0.05320454 0.12220813
0.062192485 0.052636027 0.12278773
0.0087301545 0.056507945 0.12278988
0.011061099 0.058842022 0.12239198
0.057893828 0.057887111 0.12255823
0.060402259 0.055366416 0.12208341
0.013417992 0.060947727 0.12259138
0.017443139 0.063485682 0.12246554
0.020118698 0.064937636 0.12410329
0.049044874 0.064417124 0.12279879
0.05237285 0.062357854 0.12252917
0.055283453 0.060485687 0.12235446
0.022600573 0.065806068 0.12234197
0.027473453 0.067224227 0.1226241
0.032491229 0.067806922 0.12253639
0.037617486 0.06759242 0.12268534
0.042756408 0.066692106 0.1225766
0.046498787 0.065421395 0.12224261
0.01815279 0.0040791389 0.12743948
0.022263721 0.0023117994 0.12757404
0.027233008 0.0008282045 0.12772936
0.032449346 0.00019685597 0.12751608
0.037188187 0.00035922404 0.12716746
0.042569652 0.0012670063 0.12716515
0.047617387 0.003026315 0.1273234
0.050781626 0.0046423282 0.12689301
0.012622179 0.0077995555 0.12752956
0.015813505 0.0055250688 0.12790793
0.052968759 0.0060165944 0.12791044
0.056479629 0.0087010488 0.12749608
0.0080759265 0.012243596 0.12719381
0.010043455 0.010175626 0.12855922
0.059035942 0.011255011 0.12761515
0.06094709 0.013434137 0.12767494
0.0040034698 0.01826111 0.12766378
0.0055371611 0.015794262 0.12816696
0.063436106 0.017358335 0.12742171
0.002105566 0.022853104 0.12714635
0.06492459 0.020081429 0.12737076
0.065838926 0.022694431 0.12733318
0.00075117993 0.027683064 0.12726478
0.067222714 0.027437488 0.12739888
0.00017509276 0.032645822 0.12784618
0.067803495 0.032390758 0.12743592
0.00038759748 0.037440009 0.12725161
0.06760066 0.037544265 0.12745245
0.0013230218 0.042742521 0.12776536
0.066656716 0.042864017 0.12723604
0.0029866057 0.047555402 0.1275187
0.064566806 0.048737563 0.12725447
0.06556835 0.046078801 0.12744194
0.0045749354 0.050674375 0.12728608
0.0062325881 0.053312521 0.12755792
0.06225121 0.05254256 0.12731075
0.0086853001 0.056464039 0.12770848
0.011171406 0.058952339 0.12779441
0.057795834 0.05798509 0.12752464
0.060411591 0.055357192 0.12741096
0.013568097 0.061040629 0.12740131
0.017499015 0.063516103 0.12740101
0.020151768 0.064949207 0.12723796
0.048914906 0.064468354 0.12762171
0.053008884 0.061958201 0.127492
0.05541604 0.060357586 0.12737106
0.022522246 0.065778665 0.12708767
0.027366886 0.067197196 0.1273075
0.032541879 0.067808278 0.12739155
0.03745795 0.067610376 0.12749232
0.042519633 0.066756338 0.12739448
0.046630174 0.065375425 0.12751153
0.018229393 0.0040331041 0.13271758
0.022464644 0.0022414951 0.13220721
0.027351709 0.00080790662 0.13264222
0.032097936 0.00022566269 0.13253853
0.037584376 0.00040386451 0.13279609
0.042907033 0.0013693876 0.13239178
0.047602206 0.0030222312 0.13274312
0.050619297 0.004540327 0.13202074
0.012015041 0.0083396081 0.1321786
0.01587728 0.0054849968 0.13261662
0.053130977 0.0061185202 0.13236493
0.056513 0.0087343641 0.13233981
0.007805001 0.012615364 0.13277063
0.01010298 0.010116101 0.13294385
0.058957528 0.011176605 0.13261344
0.061083555 0.013634439 0.13266438
0.0039153434 0.018407881 0.13241059
0.0054594046 0.015918007 0.13222884
0.063525639 0.017510252 0.13254334
0.0022167005 0.022535495 0.13276517
0.064964928 0.020196699 0.13297257
0.065811478 0.022616047 0.1324162
0.00075606926 0.027657602 0.13247076
0.067202061 0.027363276 0.13258892
0.00020361599 0.032334808 0.1327135
0.067803927 0.032424472 0.13251767
0.0003585917 0.037182584 0.13254994
0.067624129 0.037335925 0.1325531
0.0012862721 0.042615928 0.13285264
0.066856585 0.04221604 0.13252552
0.0031151485 0.04779391 0.13293993
0.064485677 0.048897076 0.13226132
0.065572731 0.04606631 0.132328
0.0046526985 0.05079814 0.13244824
0.0060297092 0.052989639 0.13266715
0.062517777 0.052118313 0.13252689
0.0087341135 0.056514345 0.13236134
0.011265663 0.059046585 0.13276792
0.057863832 0.057917099 0.13255012
0.060361244 0.055412088 0.13260287
0.013685367 0.061121713 0.132662
0.017348016 0.063427269 0.13271347
0.020216217 0.06497176 0.13229831
0.049046174 0.064407043 0.13246432
0.052748866 0.062121578 0.13239993
0.055442162 0.060331058 0.13245551
0.02268186 0.065834515 0.13252971
0.027290061 0.067188658 0.13265105
0.032282874 0.067786545 0.13243629
0.03766517 0.067587025 0.13270396
0.042804372 0.066667885 0.13267691
0.046311338 0.065486997 0.13258807
0.018334355 0.0039569614 0.13758668
0.022490319 0.0022325094 0.13780898
0.027759023 0.0007453445 0.13750701
0.032466844 0.00019643761 0.13734871
0.037558086 0.0004009011 0.13769254
0.042657807 0.0012785727 0.13781591
0.047707897 0.003040629 0.13741454
0.050659385 0.004565517 0.13786024
0.012463918 0.0079078516 0.13746032
0.01586052 0.0054955287 0.13737418
0.053443931 0.0063151619 0.13758856
0.056486286 0.0087068612 0.13747607
0.0077424962 0.012715175 0.13731074
0.010089947 0.010129134 0.13748701
0.058955017 0.011174091 0.13751356
0.060947251 0.013425799 0.13737991
0.0040356335 0.01821387 0.13756235
0.0054967958 0.015858503 0.13726473
0.063432716 0.017351909 0.13723548
0.0022733177 0.022373695 0.13754618
0.064978808 0.02023638 0.13876282
0.065788172 0.022549426 0.13744119
0.00075614889 0.027584929 0.13729931
0.067225404 0.027531063 0.1374421
0.00019339075 0.032421511 0.13751663
0.067795955 0.032371908 0.13707303
0.00040491379 0.037593696 0.1378607
0.0675769 0.037755191 0.13761896
0.0013234011 0.042782702 0.13761851
0.06682492 0.042245552 0.13773797
0.0029876421 0.047511481 0.13737345
0.06454628 0.048756599 0.13760234
0.065517634 0.046223763 0.13781273
0.0045376229 0.050614994 0.13780415
0.0059795165 0.052909758 0.13760588
0.06217001 0.05267179 0.13738629
0.0086337039 0.056413986 0.13788535
0.011225429 0.059006348 0.13721266
0.057744626 0.058036316 0.13751929
0.060265765 0.05551517 0.13743734
0.013447426 0.060958304 0.13761781
0.017414454 0.063464187 0.13736591
0.020146957 0.064947516 0.13701937
0.048831556 0.0645248 0.13787267
0.052473236 0.062294766 0.13726898
0.055439211 0.060341727 0.13772114
0.022580126 0.065798923 0.13719013
0.027508611 0.067208849 0.13722558
0.032083537 0.067766353 0.1375268
0.037114955 0.067649029 0.13718048
0.042257167 0.066828191 0.13763033
0.046197418 0.065526858 0.13751222
0.018202987 0.0040421342 0.14247561
0.022495691 0.002230631 0.14244246
0.027526621 0.00077788974 0.14252187
0.032667797 0.00016332198 0.14244771
0.037592895 0.00040482372 0.14238702
0.042469461 0.0012237967 0.14250422
0.047345996 0.0029100152 0.14220898
0.050759949 0.0046287021 0.14223544
0.012330675 0.0080512725 0.14236668
0.015861599 0.0054948516 0.14219397
0.053345826 0.0062535172 0.14245145
0.056600317 0.0088193929 0.14236604
0.0076556606 0.012790145 0.14258388
0.010157521 0.01006156 0.14320531
0.058787018 0.011006102 0.14248267
0.060947601 0.0134352 0.14286336
0.004062111 0.018161686 0.14255932
0.0054482892 0.0159357 0.14312474
0.063219897 0.017015701 0.14239892
0.0022938615 0.022314984 0.14243434
0.064955249 0.020169051 0.14266458
0.065783106 0.022534905 0.14258085
0.00078952982 0.027540883 0.14245388
0.067183346 0.027260778 0.14262311
0.00021425659 0.032247659 0.14245132
0.067807391 0.032428507 0.14259082
0.00042528359 0.037774473 0.14258038
0.067594029 0.03760308 0.14231743
0.0013549729 0.04292183 0.14252487
0.066771328 0.042450111 0.1425893
0.0030172642 0.047633123 0.14274752
0.064532422 0.048797078 0.14286283
0.0655334 0.046178676 0.1425139
0.0046355645 0.050770868 0.14297791
0.0062536504 0.053346034 0.14230227
0.062156599 0.052693125 0.1424253
0.008614596 0.056394938 0.14196274
0.011032687 0.058813605 0.14237405
0.058113471 0.057667494 0.1423208
0.060451515 0.055315658 0.14290872
0.013372093 0.060904868 0.1424206
0.017470434 0.063504264 0.14264083
0.020110801 0.064934865 0.1418294
0.048980441 0.064445294 0.1426581
0.052665003 0.062174287 0.1425093
0.055321578 0.060442097 0.14268176
0.022574559 0.065796971 0.14236075
0.027525758 0.067222305 0.14260103
0.032312755 0.067793004 0.14230374
0.037330721 0.067624718 0.14269698
0.042517293 0.066755816 0.14255819
0.046334576 0.065478854 0.14220691
0.018038586 0.0041440744 0.14778769
0.022792008 0.0021269445 0.14759199
0.02754486 0.00076500973 0.1475634
0.032223076 0.00022172848 0.14744903
0.037589319 0.00040442016 0.14761104
0.042587511 0.0012661432 0.14750054
0.047476351 0.0029674347 0.14751416
0.050573103 0.0045113084 0.14693816
0.012603122 0.0078165298 0.14735149
0.015698247 0.0055974908 0.14732459
0.052969914 0.0060173119 0.14741597
0.056357924 0.008578619 0.14755674
0.0077453484 0.012651632 0.14716329
0.010123756 0.010095326 0.14552337
0.058768902 0.010987978 0.14779323
0.061114904 0.013663908 0.1476036
0.0039657406 0.018330142 0.14771509
0.0054452326 0.015940566 0.1479592
0.06361118 0.017653223 0.14727332
0.0022970126 0.022305982 0.14757632
0.064968273 0.020206273 0.14678214
0.065884009 0.02282328 0.14748205
0.00083029922 0.027188672 0.14720844
0.067256853 0.027694706 0.14760867
0.00018731975 0.032533687 0.14774805
0.067812771 0.032604095 0.14724651
0.0004348607 0.037859477 0.14753382
0.067578226 0.037743293 0.1476469
0.0012337484 0.042504001 0.14740269
0.066766582 0.042445339 0.1478503
0.0030144393 0.047613971 0.14730301
0.064523637 0.048821535 0.14744957
0.065495983 0.046285622 0.14740476
0.004626255 0.050756045 0.14720379
0.0062002377 0.053261027 0.14747907
0.06226702 0.052517377 0.1473659
0.008480099 0.056255713 0.1473933
0.011052624 0.058833547 0.14782445
0.058004659 0.057776272 0.14758781
0.06039656 0.055358805 0.14759736
0.01344159 0.060958199 0.14728832
0.017265009 0.063376866 0.14772527
0.020088561 0.064927086 0.14756848
0.048974384 0.064448982 0.14749473
0.052371286 0.062358838 0.1472934
0.055499908 0.060281023 0.14673153
0.022801578 0.065876409 0.14754766
0.02761282 0.067225233 0.14747185
0.032401968 0.067805402 0.14738429
0.037215427 0.067637719 0.14791612
0.042678382 0.0666923 0.14754984
0.046465494 0.065433048 0.14748093
0.018292092 0.0039874315 0.1524561
0.0225274 0.0022195338 0.1524159
0.027308073 0.00081036281 0.15294291
0.032355856 0.00020395294 0.15251444
0.037423268 0.00038571126 0.1522902
0.042361032 0.0012084048 0.15249906
0.04741494 0.0029382238 0.15246645
0.050646402 0.00455736 0.15290067
0.012495375 0.0079067815 0.15267515
0.015910057 0.005464403 0.15254053
0.052961614 0.0060121035 0.15289228
0.056191545 0.0084139295 0.15246342
0.0081328154 0.012201548 0.1523236
0.010081176 0.010137906 0.15350328
0.058938351 0.011157426 0.15251051
0.060979865 0.013481617 0.15267642
0.0040129558 0.018253384 0.15241392
0.0055939066 0.015703952 0.15282652
0.063569672 0.017584663 0.15234859
0.0022914438 0.022321897 0.15231803
0.06494882 0.020150675 0.15219894
0.065853581 0.022736331 0.15260805
0.0007048088 0.028051397 0.1527812
0.067195728 0.027386213 0.15263702
0.00020246212 0.032416847 0.15256618
0.067806743 0.032473899 0.15264004
0.00039308812 0.037488747 0.1524089
0.067558646 0.037917089 0.15255728
0.0012229594 0.042440455 0.15284194
0.066761091 0.042505767 0.15242437
0.003064109 0.047699157 0.15250838
0.064430259 0.048990969 0.15220557
0.065498933 0.046277188 0.15215915
0.0046120919 0.05073351 0.15293953
0.0061295363 0.053148516 0.15228893
0.062258165 0.052531481 0.15250973
0.0085732481 0.056354091 0.15252759
0.011112779 0.058893703 0.15259121
0.05793592 0.05784503 0.15249379
0.060450099 0.055315439 0.15248199
0.013514104 0.060999844 0.15276186
0.017569341 0.063560233 0.15252347
0.020091347 0.064928055 0.152344
0.049175128 0.064339846 0.15231514
0.052385345 0.062349986 0.15248825
0.055394251 0.060376726 0.15331781
0.022638641 0.065819398 0.15262844
0.027495274 0.067212388 0.15265539
0.032771926 0.067835033 0.15256073
0.037412599 0.067615509 0.15303342
0.042960476 0.066644929 0.1523035
0.046350759 0.065473191 0.15267591
0.018263318 0.0040160702 0.15768638
